3.409089,3.544724,3.390546,3.329254,3.325552,3.320761,3.309513,3.301005,3.294279,3.291905,3.281236,3.275390,3.272613,3.283126,3.310591,3.289596,3.294477,3.298518,3.299633,3.304610,3.319816,3.328823,3.336298,3.345849,3.360876,3.432080,3.551491,3.556285,3.554697,3.535533,3.542429,3.923496,4.185451,4.195851,4.168161,3.945910,4.071987,4.178005,4.292291,4.529796,4.543612,4.591461,4.527998,4.550909,4.565029,4.607633,4.545642,3.899667,4.335280,4.094577,4.059473,3.853149,3.847659,3.898041,3.985118,3.848683,4.363842,4.457165,4.404653,3.864432,4.024460,3.816646,3.895776,3.923539,3.910233,3.784241,3.809839,4.496813,4.507185,4.060049,4.175192,3.994592,4.163139,4.160579,4.174959,4.361481,4.631445,4.670518,4.692047,4.626945,3.972604,3.788921,4.255735,4.022305,3.825394,3.864164,3.794859,3.779677,3.769963,3.892326,4.397013,4.393010,4.405566,4.340053,4.659822,4.697805,4.713595,4.721680,4.724424,4.723431,4.726871,4.727501,4.729304,4.717800,4.575453,4.113410,4.205294,4.657481,4.699079,4.694579,4.684711,4.257682,4.215351,4.312666,4.676095,4.701668,4.686479,4.688745,4.708249,4.702657,4.593539,4.064835,4.431305,4.039003,4.161078,4.600770,4.611412,4.636710,4.673159,4.687353,4.694869,4.710058,4.726680,4.729090,4.440011,4.224332,4.221127,4.225128,4.227155,4.238400,4.454011,4.515552,4.157203,3.961378,3.963558,3.957501,3.947652,3.975882,4.472186,4.524347,4.390969,4.291456,4.059619,3.925511,3.904095,3.902308,3.887167,3.897913,3.977793,3.978874,3.924378,3.897583,4.737509,4.676288,4.672610,4.684189,4.688815,4.696005,4.699156,4.703309,4.703199,4.704434,4.707637,4.708124,4.708905,4.711029,4.711372,4.713321,4.715283,4.720129,4.727480,4.726719,4.726073,4.718335,4.556162,3.970177,3.898232,3.853326,3.816222,3.807768,3.807627,3.776783,3.753811,3.749504,3.736901,3.745591,3.750297,3.760767,3.808733,3.844154,3.854257,3.861258,3.805208,3.799081,3.808189,3.835133,3.871377,3.941419,4.040707,4.540472,4.633010,4.660950,4.678227,4.688515,4.546916,4.572134,4.611958,4.663190,4.679124,4.686016,4.691088,4.695438,4.698979,4.702861,4.704491,4.706173,4.710562,4.714162,4.716210,4.714121,4.712705,4.702428,4.535181,4.028913,4.009382,3.966937,3.893417,3.877463,3.870367,3.867296,3.858732,3.857067,3.857327,3.857676,3.854522,3.850571,3.847418,3.851598,3.860591,4.352838,4.640531,4.673251,4.684523,4.693260,4.696461,4.697595,4.697254,4.697553,4.697104,4.697786,4.698987,4.700808,4.701199,4.701829,4.702168,4.701307,4.699861,4.700915,4.698092,4.699598,4.696991,4.691938,4.588821,4.285695,4.243495,4.232724,4.225598,4.223841,4.226880,4.234778,4.268573,4.600767,4.682579,4.692605,4.695145,4.695515,4.695979,4.695076,4.692278,4.688824,4.687433,4.687510,4.687891,4.688033,4.689048,4.689701,4.689179,4.689059,4.687549,4.685738,4.684923,4.683369,4.682425,4.679465,4.676524,4.671096,4.666047,4.658514,4.643217,4.633233,4.603944,4.538706,4.342124,4.068104,3.878653,3.796866,3.767674,3.745005,3.725093,3.708437,3.687961,3.675718,3.669155,3.657123,3.652667,3.649246,3.649281,3.644202,3.641689,3.641978,3.639781
3.423285,3.539620,3.435669,3.332738,3.336635,3.334232,3.305556,3.292913,3.284436,3.280200,3.283576,3.292375,3.281750,3.279055,3.282425,3.287413,3.317805,3.331668,3.334961,3.331892,3.336992,3.343092,3.354333,3.364284,3.411497,3.523661,3.591270,3.540457,3.524600,3.528573,3.547370,4.076327,4.206257,4.181375,4.028903,4.455029,4.569606,4.592308,4.612805,4.618371,4.609879,4.607585,4.599934,4.600639,4.608059,4.556587,4.164421,3.936832,4.468348,4.006257,4.163741,3.898532,3.866387,3.890737,3.878436,3.846987,4.030199,4.439315,4.474103,3.824254,4.208455,3.834424,3.829391,3.881417,3.798232,3.882016,4.209505,4.506799,4.527802,4.477479,4.482807,3.996192,4.153213,4.154366,4.184465,4.297666,4.563513,4.635386,4.646777,4.618868,4.121575,3.869630,4.100210,4.237822,3.878926,4.291010,3.812380,3.777305,3.785493,3.842130,4.340186,4.335912,4.470525,3.937656,4.568383,4.694500,4.706227,4.716417,4.717613,4.718565,4.719448,4.720493,4.728953,4.723231,4.688945,4.039542,4.205719,4.674106,4.699433,4.695088,4.679763,4.316385,4.289852,4.512964,4.678076,4.698313,4.693308,4.697675,4.697400,4.673037,4.618912,4.092931,4.355849,4.198602,4.063509,4.600772,4.656320,4.672754,4.690401,4.701239,4.707203,4.715558,4.727420,4.734087,4.517594,4.236523,4.227149,4.229791,4.232714,4.245480,4.371454,4.112397,3.979184,3.954974,3.965497,3.962556,3.952091,3.976438,4.440084,4.563225,4.487444,4.381785,3.986421,3.928003,3.921779,3.927925,3.900701,3.889490,3.940183,4.099001,4.007848,3.899732,4.716931,4.676442,4.670677,4.680035,4.687756,4.689874,4.693161,4.694828,4.697794,4.697854,4.699026,4.698916,4.700029,4.702252,4.703456,4.704819,4.706656,4.712922,4.718798,4.717738,4.716862,4.704579,4.585835,4.085375,4.117834,3.908579,3.827788,3.814463,3.816977,3.793827,3.770623,3.765479,3.747504,3.754316,3.767446,3.767564,3.836509,3.848418,3.849336,3.881743,3.807997,3.805212,3.823271,3.860447,3.909940,3.983462,4.042268,4.552466,4.631895,4.650309,4.658369,4.658458,4.654177,4.658336,4.657559,4.661984,4.667636,4.675467,4.682361,4.686599,4.690201,4.694616,4.696897,4.701273,4.705087,4.706878,4.707521,4.707304,4.709293,4.706827,4.645679,4.146344,4.023512,3.960500,3.929714,3.927837,3.900653,3.869808,3.906590,3.877125,3.866971,3.865048,3.862363,3.860103,3.856271,3.851800,3.914864,4.405604,4.646427,4.672008,4.679060,4.686558,4.688662,4.689581,4.688738,4.689901,4.690053,4.690128,4.690307,4.691469,4.692501,4.692619,4.692805,4.691547,4.691295,4.693075,4.691393,4.695186,4.698017,4.681609,4.500791,4.288959,4.249991,4.241705,4.234827,4.233945,4.235658,4.242996,4.290379,4.640997,4.685812,4.684809,4.686938,4.687444,4.688723,4.688236,4.685659,4.682981,4.680969,4.680235,4.680837,4.681586,4.681663,4.682558,4.681696,4.680595,4.679693,4.678984,4.676096,4.674100,4.671564,4.671048,4.667356,4.662046,4.657762,4.651289,4.641938,4.637458,4.615196,4.557115,4.360441,4.074337,3.902108,3.811491,3.785065,3.762465,3.742846,3.727032,3.710460,3.701732,3.687692,3.664865,3.661098,3.655275,3.652985,3.648912,3.647038,3.647012,3.643612
3.439597,3.543240,3.459499,3.333456,3.346880,3.387678,3.347554,3.291097,3.282193,3.285486,3.304513,3.300936,3.276950,3.266999,3.263949,3.261794,3.301761,3.352551,3.349660,3.356099,3.368124,3.388808,3.516029,3.571065,3.574263,3.573950,3.670058,3.562157,3.525083,3.524230,3.551628,3.788390,3.644857,3.653330,3.793309,4.511600,4.595420,4.626747,4.639117,4.639030,4.626966,4.624512,4.630254,4.627131,4.617229,4.496486,3.926966,4.001861,4.377006,3.977216,4.184517,3.934785,3.889799,3.862532,3.876069,3.966977,4.429388,4.455155,4.436440,3.969003,4.266597,3.956264,3.783934,3.907432,3.936682,4.545942,4.536612,4.517087,4.499776,4.483810,4.510267,4.351970,4.097630,4.144004,4.184386,4.273496,4.491146,4.583197,4.576576,4.363194,3.872295,3.860294,3.913056,4.316872,3.868139,3.966931,3.928083,4.006166,3.986598,3.855463,4.238362,4.070373,4.503101,3.979518,4.574213,4.675274,4.701889,4.709049,4.711794,4.711708,4.711005,4.711623,4.724385,4.727985,4.361395,4.096247,4.176991,4.658851,4.717441,4.701441,4.679810,4.629372,4.675543,4.624487,4.628174,4.688071,4.699874,4.695459,4.685018,4.645296,4.579931,4.710465,4.522607,4.152940,4.183078,4.646561,4.679354,4.687840,4.696849,4.707873,4.714639,4.718189,4.727397,4.733967,4.565358,4.240745,4.232531,4.233497,4.234835,4.248277,4.361909,4.151151,3.990811,3.952882,3.970383,3.980822,3.942704,3.958084,4.250744,4.567655,4.593583,4.531361,4.006640,3.923943,4.063900,3.954792,3.903288,3.898468,3.970577,4.196390,4.154097,3.992441,4.643526,4.668348,4.664152,4.672488,4.680718,4.684902,4.686305,4.686114,4.688346,4.689270,4.690532,4.689450,4.690105,4.691432,4.694302,4.695270,4.697446,4.703857,4.707909,4.705338,4.704268,4.694756,4.636246,4.361579,4.350587,3.868181,3.828344,3.818589,3.820554,3.813026,3.792770,3.790155,3.779545,3.763372,3.789336,3.789487,3.844913,3.851586,3.847321,3.892931,3.820376,3.819110,3.842699,3.890703,3.943449,4.021792,4.067430,4.559770,4.623610,4.639308,4.647259,4.650792,4.652107,4.659173,4.662326,4.663289,4.666945,4.672122,4.676840,4.680449,4.685269,4.689620,4.691430,4.694432,4.698272,4.699691,4.701637,4.702233,4.705613,4.704844,4.695560,4.489389,4.137444,3.972697,4.184091,4.317080,4.294348,4.219232,3.959624,3.889663,3.876554,3.872419,3.868413,3.865385,3.858433,3.866079,4.156570,4.560410,4.652327,4.670906,4.674847,4.681059,4.684005,4.683934,4.682553,4.682771,4.683219,4.684400,4.683357,4.684963,4.685999,4.687155,4.686438,4.684896,4.684210,4.685578,4.684651,4.688679,4.690097,4.672348,4.448023,4.286970,4.259577,4.247959,4.240312,4.241205,4.242859,4.246940,4.400314,4.665817,4.676499,4.675642,4.678257,4.679887,4.681047,4.680432,4.678081,4.676108,4.673970,4.672875,4.672446,4.673684,4.673435,4.675582,4.674612,4.674066,4.672335,4.670011,4.668740,4.667172,4.665054,4.661866,4.659299,4.653151,4.651171,4.646511,4.634461,4.628731,4.604832,4.544704,4.355217,4.057352,3.917646,3.844870,3.801023,3.780069,3.762915,3.745531,3.731086,3.723048,3.705254,3.677099,3.670995,3.663777,3.658730,3.656084,3.655008,3.653263,3.648646
3.494444,3.527639,3.445006,3.332337,3.344862,3.367281,3.354574,3.305504,3.290354,3.294295,3.318545,3.308983,3.278122,3.262555,3.259670,3.260833,3.274867,3.340985,3.355728,3.363389,3.374362,3.393321,3.529400,3.559352,3.560362,3.513770,3.505146,3.494570,3.490177,3.509194,3.550258,3.601492,3.572026,3.575348,3.875071,4.526124,4.615714,4.642998,4.652303,4.654326,4.645836,4.648278,4.649523,4.641641,4.626674,4.536448,4.015195,4.064926,4.114619,3.951239,3.978147,3.956053,3.933927,3.890049,3.804110,4.245936,4.501888,4.465423,4.429429,4.189235,4.268601,3.849242,3.760975,3.772003,3.936755,4.176929,4.524818,4.530389,4.507453,4.495768,4.510585,4.417682,4.077277,4.027667,4.177412,4.241342,4.359793,4.364913,3.999767,3.852076,3.829557,3.850474,3.946058,4.313255,3.851917,3.909229,3.910331,3.973355,4.022609,3.993686,4.043867,3.964075,4.447256,4.054271,4.426396,4.635862,4.678533,4.694998,4.701267,4.701577,4.699712,4.698347,4.706148,4.688574,4.162889,4.143413,4.154521,4.203679,4.650431,4.698622,4.688236,4.674114,4.677172,4.626360,4.663241,4.707268,4.706380,4.699800,4.696160,4.663375,4.512608,4.692828,4.611590,4.305571,4.468534,4.661241,4.692395,4.700440,4.708306,4.712563,4.715523,4.717848,4.723298,4.732697,4.572103,4.250687,4.240298,4.240893,4.244747,4.254914,4.385660,4.421952,3.969535,3.956288,4.133424,4.211115,3.956619,3.951996,4.126390,4.569036,4.659530,4.659452,4.654757,4.653691,4.302656,3.903128,3.984985,3.922540,3.982429,4.340771,4.263744,4.498194,4.648494,4.654999,4.657266,4.666045,4.671734,4.676890,4.678857,4.677734,4.678416,4.679816,4.680339,4.679171,4.678955,4.681633,4.683077,4.684898,4.686176,4.691955,4.695942,4.691642,4.689397,4.686907,4.680150,4.620450,4.524249,4.001473,3.875258,3.825421,3.823915,3.820840,3.820460,3.818982,3.804260,3.774230,3.835579,3.849977,3.871261,3.881293,3.851569,3.868298,3.849159,3.839100,3.873411,3.946092,4.000088,4.050756,4.097474,4.541447,4.621521,4.638680,4.646770,4.650733,4.651143,4.657145,4.661020,4.664918,4.666776,4.670835,4.673125,4.675569,4.678986,4.683522,4.684648,4.686433,4.690178,4.690042,4.691851,4.694328,4.697602,4.696688,4.692060,4.668343,4.551531,4.238039,4.570674,4.584584,4.555505,4.467649,4.041376,3.899712,3.882011,3.881582,3.874628,3.871841,3.865510,3.907169,4.372845,4.614952,4.659688,4.669427,4.672746,4.674229,4.677184,4.677393,4.676454,4.676569,4.677061,4.677097,4.676942,4.678026,4.679173,4.679209,4.678368,4.677362,4.677057,4.679165,4.677960,4.683661,4.688117,4.658513,4.425350,4.288889,4.265209,4.254545,4.249242,4.254033,4.256778,4.238895,4.555099,4.672140,4.669100,4.668838,4.670130,4.670320,4.671291,4.671794,4.669779,4.667576,4.665807,4.664982,4.664792,4.664811,4.666283,4.666924,4.666846,4.666002,4.664180,4.663692,4.660742,4.659094,4.657369,4.652713,4.649023,4.644312,4.641207,4.638510,4.629662,4.620674,4.598328,4.553420,4.392095,4.057395,3.939779,3.881687,3.839659,3.807351,3.781800,3.759909,3.745072,3.733829,3.717430,3.690688,3.680334,3.673053,3.668897,3.665211,3.662427,3.658919,3.656010
3.497936,3.532820,3.472908,3.325504,3.344708,3.332585,3.329650,3.322980,3.321834,3.326975,3.328032,3.317049,3.302952,3.272092,3.257174,3.264540,3.279611,3.337326,3.358661,3.369805,3.380850,3.395864,3.477291,3.537217,3.551969,3.493014,3.488157,3.485725,3.490553,3.502348,3.521804,3.540673,3.556983,3.586950,4.059815,4.591643,4.640184,4.657588,4.658107,4.661178,4.657930,4.660896,4.661500,4.651993,4.645596,4.581383,4.108415,4.066719,3.931010,3.910869,3.898421,4.149781,3.949816,4.161841,3.858548,4.293038,4.515510,4.444508,4.432822,4.278821,3.855586,3.777965,3.767184,3.842361,4.501383,4.554129,4.522812,4.527122,4.536520,4.525243,4.537607,4.446509,4.090929,3.942704,4.119915,4.184387,4.023988,3.842297,3.837500,3.828645,3.840443,3.863989,3.908951,4.163239,3.851666,3.886496,3.896480,3.904294,4.160745,4.094390,3.919956,3.967245,4.369637,3.893692,4.048803,4.563593,4.652419,4.683952,4.691175,4.685221,4.680990,4.684274,4.701196,4.677589,4.404620,4.223938,4.160827,4.267041,4.612393,4.678989,4.681042,4.666334,4.658320,4.641764,4.704387,4.711577,4.708235,4.700891,4.698627,4.677717,4.219092,4.634502,4.675718,4.589833,4.611619,4.678559,4.699941,4.704118,4.710343,4.709239,4.710016,4.709645,4.711539,4.715677,4.571270,4.265654,4.249127,4.250242,4.254232,4.258603,4.371063,4.636622,4.288664,4.019476,4.419321,4.501914,3.950887,3.948289,3.993798,4.590837,4.670084,4.678873,4.687690,4.675214,4.569387,3.989057,3.928615,3.900731,4.012822,4.475440,4.536694,4.607860,4.637556,4.644130,4.651240,4.658753,4.662892,4.666402,4.669570,4.669489,4.668570,4.669593,4.669955,4.669644,4.669190,4.670543,4.671570,4.672858,4.674797,4.679029,4.682086,4.680432,4.679278,4.676529,4.675192,4.671944,4.668835,4.556395,4.362529,3.871073,3.862144,3.844723,3.863514,3.855302,3.835152,3.818505,3.939910,3.880320,3.868205,3.888160,3.881891,3.905514,3.932537,3.928426,3.937415,4.007979,4.047260,4.080284,4.121777,4.537401,4.620245,4.637860,4.643793,4.648179,4.650695,4.656357,4.658293,4.662599,4.664009,4.666671,4.667944,4.668586,4.671409,4.674944,4.676142,4.678229,4.680897,4.681325,4.681734,4.685649,4.688423,4.687189,4.684961,4.684835,4.675856,4.604198,4.669763,4.649374,4.628758,4.575578,4.156463,3.916310,3.900510,3.894730,3.887334,3.882711,3.902612,4.040325,4.523284,4.637225,4.659630,4.662909,4.667009,4.668817,4.669236,4.670210,4.670151,4.669687,4.669858,4.670301,4.670148,4.670704,4.670598,4.670444,4.669835,4.669051,4.668523,4.670042,4.670490,4.675113,4.678963,4.621737,4.395936,4.294283,4.273119,4.262071,4.259059,4.263612,4.267481,4.256457,4.615280,4.663102,4.659673,4.658943,4.660992,4.660391,4.659813,4.661401,4.661847,4.660374,4.658707,4.657866,4.658089,4.658892,4.658869,4.659309,4.658932,4.659123,4.657147,4.654256,4.652459,4.650662,4.648321,4.644256,4.639831,4.634269,4.632238,4.632033,4.624474,4.619239,4.594301,4.562640,4.399463,4.077899,3.949906,3.902104,3.867734,3.831808,3.799766,3.775407,3.758424,3.744847,3.726643,3.703184,3.687307,3.679953,3.675994,3.672613,3.668213,3.664321,3.661943
3.459368,3.540570,3.526803,3.345681,3.332598,3.328031,3.326587,3.325561,3.324103,3.333275,3.329567,3.319772,3.315939,3.296770,3.268907,3.269840,3.289472,3.330013,3.352417,3.369684,3.383019,3.398365,3.450212,3.446377,3.478489,3.493776,3.496538,3.479986,3.492736,3.512507,3.519445,3.522782,3.543023,3.588694,4.114580,4.598459,4.655850,4.668613,4.668670,4.672815,4.664949,4.669791,4.671019,4.667782,4.667462,4.650739,4.384820,4.267521,4.397966,4.198886,3.918451,4.330062,4.045614,4.489620,4.095105,3.999330,4.171932,4.399170,4.449717,4.283473,3.958743,3.799008,3.786981,3.862665,4.494206,4.545208,4.516161,4.534479,4.554752,4.550869,4.557334,4.470682,4.048939,3.975817,4.039885,4.062255,3.839538,3.834856,3.828043,3.835397,3.847707,3.844149,3.840000,3.957220,3.853524,3.877009,3.883111,3.899590,4.126731,3.904660,4.031975,3.902552,4.190047,3.823303,4.064768,4.356153,4.595271,4.677384,4.680441,4.673648,4.675434,4.677731,4.680195,4.694880,4.697081,4.722654,4.696658,4.627223,4.652236,4.665329,4.674617,4.662435,4.660816,4.659335,4.698321,4.698781,4.699042,4.692935,4.689653,4.698215,4.272638,4.604908,4.685540,4.644420,4.659302,4.688153,4.699835,4.702946,4.704947,4.703592,4.701837,4.700313,4.699951,4.699786,4.606625,4.273829,4.259388,4.260235,4.263715,4.270329,4.346690,4.684081,4.686907,4.676780,4.647359,4.585296,3.964649,3.952778,3.972062,4.628245,4.667605,4.674140,4.687834,4.683690,4.528874,4.056568,3.935569,3.916394,3.996977,4.532013,4.635324,4.625333,4.637562,4.639670,4.645531,4.651947,4.653867,4.656585,4.657912,4.658853,4.659540,4.659421,4.659184,4.658068,4.658429,4.659118,4.660102,4.660697,4.661798,4.665386,4.668254,4.666773,4.665738,4.666180,4.660230,4.657550,4.665673,4.663922,4.639642,4.488282,4.254891,3.960433,3.902697,3.890628,3.881225,3.907146,3.968091,3.940948,4.014110,4.025333,4.062929,3.981460,4.005480,4.027875,4.013396,4.062086,4.092083,4.114875,4.147429,4.544356,4.615543,4.634326,4.642298,4.648255,4.649270,4.654562,4.656839,4.659286,4.658990,4.660183,4.662016,4.662596,4.664384,4.665844,4.667280,4.669841,4.671063,4.670883,4.670188,4.675319,4.677296,4.677642,4.674461,4.668928,4.667596,4.662043,4.668907,4.667599,4.668599,4.623579,4.288428,3.982873,3.931478,3.911672,3.907000,3.925232,4.174031,4.441068,4.577701,4.637501,4.651743,4.656648,4.660088,4.660970,4.662285,4.662594,4.661788,4.662405,4.662277,4.662204,4.661963,4.662582,4.662196,4.661815,4.661241,4.659711,4.660079,4.661934,4.661540,4.667100,4.673065,4.581361,4.362910,4.296587,4.278956,4.268937,4.265098,4.269904,4.273903,4.350646,4.639534,4.657517,4.651736,4.650615,4.652192,4.650364,4.650668,4.651942,4.651819,4.652102,4.650717,4.648939,4.648374,4.650030,4.651168,4.652495,4.651525,4.650740,4.649724,4.645511,4.642203,4.639977,4.639269,4.636130,4.633067,4.629561,4.626036,4.624726,4.617292,4.617655,4.604535,4.571128,4.347036,4.061537,3.956953,3.912103,3.882684,3.857564,3.825375,3.791873,3.772132,3.754213,3.733365,3.715939,3.698121,3.690634,3.683903,3.679429,3.674173,3.668076,3.665368
3.462527,3.530048,3.431458,3.326096,3.323020,3.329185,3.332188,3.343589,3.332400,3.336733,3.335099,3.329550,3.326867,3.325926,3.312505,3.305196,3.315759,3.332814,3.348312,3.366623,3.385622,3.403724,3.422901,3.430250,3.456301,3.494623,3.497637,3.470976,3.503051,3.586516,3.535279,3.522984,3.542067,3.600784,3.773436,4.566268,4.669476,4.679646,4.675334,4.677141,4.672433,4.672956,4.673926,4.671905,4.669358,4.672894,4.646545,4.617750,4.616218,4.565378,3.993997,4.295383,4.175371,4.681323,4.504669,4.068474,3.968509,4.318114,4.470818,3.834187,3.799607,3.787163,3.775280,3.774377,3.798036,4.007101,4.459849,4.540766,4.559268,4.563170,4.565906,4.503729,4.099632,3.862101,3.874697,3.924381,3.859503,3.848068,3.852030,3.863414,3.962344,4.397278,4.425548,3.906938,3.855442,3.861454,3.872946,3.913556,4.383614,3.811920,3.944592,3.891032,3.937447,3.896395,3.985381,3.851760,4.566323,4.653221,4.656835,4.661535,4.664416,4.668283,4.667569,4.675705,4.680527,4.682677,4.672357,4.670979,4.669544,4.671286,4.672334,4.668412,4.670300,4.678430,4.688097,4.688662,4.690579,4.684350,4.680390,4.643143,4.342731,4.518977,4.709468,4.652952,4.675488,4.690189,4.694604,4.696771,4.696965,4.694505,4.692712,4.690090,4.687067,4.687731,4.624409,4.276839,4.262408,4.264886,4.272201,4.279286,4.339208,4.639217,4.689980,4.688227,4.678244,4.655655,4.272755,4.027140,4.162331,4.610527,4.664227,4.673577,4.687298,4.686347,4.627192,4.469927,4.158505,3.984866,3.981674,4.512622,4.568449,4.617372,4.631885,4.636559,4.640829,4.643868,4.644526,4.647595,4.649533,4.649115,4.649190,4.649065,4.648058,4.647161,4.647271,4.648631,4.649375,4.650037,4.650487,4.653086,4.655281,4.654026,4.653059,4.653721,4.650228,4.649726,4.650233,4.649650,4.643981,4.610680,4.523832,4.095479,3.944207,3.918922,3.904367,3.901552,3.921182,3.981414,4.111156,4.071702,4.087060,4.070868,4.092634,4.140505,4.093345,4.102204,4.124969,4.144679,4.168402,4.526901,4.607283,4.629720,4.638418,4.644623,4.646059,4.648167,4.651092,4.652914,4.653158,4.652832,4.654236,4.655388,4.657328,4.659098,4.658525,4.659255,4.660175,4.659622,4.659328,4.663146,4.665432,4.665437,4.664099,4.661816,4.659624,4.658449,4.659259,4.661199,4.665080,4.640461,4.314680,4.195713,4.018361,3.966213,3.997373,4.311845,4.492755,4.561440,4.611423,4.636361,4.646959,4.651052,4.651792,4.652957,4.654444,4.654809,4.654265,4.654712,4.654460,4.654158,4.654164,4.654157,4.653607,4.652829,4.651655,4.650065,4.650284,4.651628,4.651948,4.654514,4.654884,4.538296,4.339253,4.300456,4.284508,4.277316,4.272390,4.273490,4.284204,4.398382,4.634437,4.643327,4.642538,4.641408,4.643528,4.642472,4.642813,4.644051,4.643740,4.643913,4.643436,4.640181,4.641145,4.642762,4.645327,4.646317,4.643552,4.642472,4.641863,4.639091,4.634858,4.633396,4.631024,4.628687,4.625389,4.622047,4.620694,4.619974,4.613618,4.614370,4.612851,4.595485,4.292324,4.048407,3.964536,3.922431,3.897494,3.879653,3.843568,3.803873,3.781981,3.763309,3.741161,3.725124,3.710787,3.698875,3.691625,3.685655,3.681323,3.675611,3.670822
3.511202,3.437092,3.367025,3.358664,3.358569,3.363484,3.410495,3.502919,3.368655,3.340456,3.342754,3.342051,3.337113,3.336676,3.338247,3.350092,3.333082,3.338074,3.350211,3.366469,3.385525,3.401164,3.420255,3.434400,3.443238,3.455921,3.474960,3.475580,3.528613,3.660395,3.550302,3.543802,3.555799,3.585754,3.673974,4.592189,4.689992,4.681866,4.672817,4.672258,4.670506,4.672584,4.670680,4.665061,4.662296,4.661319,4.668571,4.665773,4.658794,4.687673,4.517784,4.656062,4.596399,4.722865,4.691516,4.474300,4.006620,4.163965,4.465325,3.895511,3.763413,3.759394,3.756388,3.764474,3.782624,4.252841,4.502899,4.540320,4.561440,4.573374,4.571770,4.527554,4.194779,3.853448,3.849246,3.845543,3.842867,3.848056,3.867335,4.033566,4.532915,4.490161,4.504659,3.855018,3.843066,3.845505,3.866226,3.953793,4.577241,3.905545,3.905521,3.881138,3.878424,3.879865,3.868835,3.905442,4.479500,4.628721,4.645552,4.646049,4.652273,4.658705,4.654949,4.663961,4.665672,4.665581,4.666028,4.666855,4.667213,4.669158,4.668801,4.668602,4.669757,4.673849,4.677947,4.677979,4.677620,4.671400,4.677100,4.678833,4.423255,4.539252,4.620606,4.656120,4.673973,4.682030,4.685040,4.686537,4.685632,4.681937,4.679319,4.677829,4.674273,4.678512,4.615764,4.279247,4.264498,4.268067,4.272454,4.278051,4.339052,4.619495,4.667306,4.668340,4.665988,4.668417,4.650301,4.659778,4.648014,4.662928,4.663242,4.670030,4.677725,4.677049,4.669619,4.622236,4.480711,3.995650,4.000942,4.304119,4.267129,4.584658,4.627181,4.630126,4.633220,4.635151,4.634574,4.636313,4.637731,4.637805,4.636879,4.637246,4.637150,4.636556,4.636544,4.637291,4.638221,4.638119,4.639140,4.640895,4.643160,4.641952,4.641069,4.641407,4.641270,4.639755,4.637621,4.635637,4.637018,4.638781,4.584306,4.195024,3.945566,3.922381,3.901847,3.902565,3.928836,4.082420,4.308854,4.220488,4.184738,4.154612,4.140433,4.247507,4.145797,4.142499,4.156137,4.173016,4.189239,4.517309,4.605428,4.624092,4.629388,4.634325,4.636561,4.640375,4.641680,4.643015,4.643955,4.643795,4.645194,4.647022,4.648664,4.650720,4.650221,4.649977,4.650761,4.650152,4.650856,4.653716,4.656219,4.656579,4.655369,4.653748,4.653499,4.653504,4.653463,4.654640,4.657773,4.643389,4.414423,4.323779,4.255430,4.336244,4.390841,4.540188,4.564625,4.601398,4.623778,4.633965,4.640396,4.642603,4.643768,4.643808,4.644773,4.645025,4.646372,4.645713,4.645967,4.645209,4.646323,4.646491,4.644947,4.644116,4.642885,4.641720,4.641093,4.642934,4.642235,4.647563,4.647974,4.496154,4.331014,4.301840,4.288849,4.282620,4.277057,4.279308,4.295821,4.463695,4.636724,4.635247,4.634486,4.631597,4.632751,4.631255,4.632372,4.633479,4.633762,4.632946,4.633284,4.632913,4.633353,4.632109,4.633374,4.634880,4.632490,4.632393,4.630449,4.629575,4.627011,4.625870,4.624607,4.622093,4.618571,4.615764,4.614658,4.613648,4.610069,4.613106,4.613934,4.610830,4.284611,4.099361,3.997728,3.944072,3.921624,3.903636,3.874900,3.816277,3.791427,3.771616,3.749479,3.732190,3.722322,3.709615,3.700178,3.693054,3.688036,3.680806,3.676142
3.621394,3.425076,3.386115,3.395435,3.419590,3.508287,3.629372,3.640666,3.498203,3.358114,3.352199,3.358702,3.347648,3.342956,3.345461,3.381039,3.349311,3.346298,3.353976,3.365165,3.384249,3.400391,3.419105,3.436121,3.442126,3.446147,3.459481,3.473563,3.488507,3.591381,3.584915,3.555305,3.570459,3.568744,3.854095,4.608866,4.685301,4.677699,4.668540,4.666306,4.665023,4.666081,4.665816,4.663258,4.662547,4.662640,4.666985,4.664335,4.665887,4.676155,4.652804,4.678752,4.685198,4.696861,4.711964,4.623995,4.102624,4.085246,4.241314,4.320653,4.181027,3.772713,3.762441,3.852668,4.458700,4.530252,4.543156,4.552618,4.563350,4.577375,4.583626,4.557973,4.460037,4.085261,3.857362,3.841888,3.838709,3.850614,4.001458,4.522095,4.506458,4.452246,4.458324,4.010612,3.842194,3.840035,3.930575,3.980756,4.614758,4.565885,3.918792,3.884565,3.880964,3.853081,3.852623,3.873242,4.052959,4.575495,4.631612,4.635478,4.643041,4.650344,4.649078,4.654822,4.657433,4.658428,4.660041,4.662980,4.664457,4.665788,4.666524,4.666712,4.665933,4.666495,4.668568,4.670128,4.669030,4.662983,4.665942,4.667867,4.635986,4.646158,4.655735,4.665454,4.673734,4.674741,4.674603,4.675349,4.672809,4.669681,4.667188,4.665688,4.662222,4.667911,4.612619,4.294526,4.268884,4.270350,4.274539,4.279788,4.336957,4.609403,4.655375,4.651422,4.652037,4.649160,4.644346,4.646175,4.647504,4.650381,4.649826,4.655510,4.660281,4.660006,4.659129,4.660961,4.663989,4.711210,3.919368,4.081615,4.126752,4.575052,4.619641,4.624510,4.627438,4.630020,4.629426,4.629354,4.629467,4.628500,4.629328,4.628913,4.627720,4.626714,4.627453,4.628568,4.628727,4.628198,4.627773,4.630076,4.632240,4.631211,4.630327,4.630080,4.629924,4.629482,4.628377,4.624926,4.628232,4.630628,4.560680,3.968257,3.958436,3.928578,3.903544,3.905564,3.935207,4.198005,4.385975,4.406454,4.451624,4.421122,4.400288,4.419851,4.178188,4.172893,4.181573,4.192268,4.208695,4.511139,4.605300,4.621978,4.625308,4.629154,4.629663,4.632496,4.634335,4.636486,4.635681,4.634421,4.638120,4.639940,4.641001,4.642394,4.640582,4.641268,4.641870,4.641743,4.641922,4.645241,4.648067,4.648731,4.648250,4.645543,4.645881,4.647702,4.647290,4.647333,4.645619,4.644475,4.518087,4.424099,4.385145,4.496809,4.546923,4.592983,4.607295,4.618568,4.626048,4.631302,4.635005,4.637595,4.637770,4.638189,4.637916,4.638293,4.637738,4.639133,4.639643,4.639328,4.639312,4.638899,4.637709,4.636220,4.635324,4.633247,4.633839,4.634889,4.633882,4.636860,4.625837,4.437738,4.331201,4.311464,4.297644,4.291245,4.285035,4.285590,4.316826,4.510240,4.631725,4.625474,4.625117,4.622295,4.624163,4.624187,4.623988,4.625551,4.624835,4.624817,4.625083,4.624209,4.624474,4.625778,4.627336,4.626335,4.625666,4.625887,4.623179,4.624229,4.620586,4.619420,4.617257,4.616834,4.613522,4.611022,4.606849,4.606011,4.606610,4.608036,4.608390,4.599350,4.331277,4.170846,4.055724,3.967854,3.942742,3.925453,3.906123,3.834171,3.797133,3.779709,3.756099,3.743181,3.732417,3.719562,3.710030,3.700348,3.695778,3.687926,3.683510
3.714964,3.464449,3.423016,3.495997,3.619799,3.705420,3.693310,3.682863,3.627403,3.424699,3.360292,3.351561,3.353212,3.347986,3.351696,3.383595,3.363179,3.360164,3.364624,3.372854,3.402974,3.407456,3.419909,3.438213,3.451676,3.457414,3.460310,3.458136,3.498458,3.570854,3.593493,3.561631,3.573500,3.561415,3.818249,4.603491,4.658176,4.670433,4.661361,4.664885,4.666371,4.667845,4.664391,4.663554,4.663134,4.663006,4.663810,4.663693,4.665138,4.665031,4.667819,4.671846,4.677129,4.677334,4.681212,4.675940,4.580829,4.263643,4.207665,4.226573,4.162198,3.909674,3.817687,3.820226,4.333649,4.531350,4.548015,4.564626,4.574113,4.581810,4.578015,4.558489,4.491302,4.209520,3.870974,3.854450,3.859050,3.885399,3.944563,4.497089,4.492828,4.432343,4.098687,4.054979,3.850907,3.828639,3.860090,4.486852,4.607696,4.528984,4.005496,3.880287,3.834509,3.866811,3.883007,3.876196,3.946067,4.057032,4.606051,4.625700,4.637201,4.643517,4.645981,4.654274,4.653552,4.653445,4.653649,4.657755,4.657550,4.658004,4.658061,4.658343,4.659626,4.659630,4.660654,4.659647,4.659371,4.654954,4.654199,4.654953,4.653836,4.657519,4.658736,4.662393,4.665077,4.664121,4.664020,4.664962,4.662746,4.659177,4.657372,4.654335,4.650351,4.652763,4.594730,4.303639,4.275026,4.276835,4.278996,4.281227,4.334116,4.601238,4.641288,4.632517,4.633473,4.631155,4.626302,4.626948,4.629277,4.634781,4.636736,4.640799,4.642295,4.643411,4.642312,4.643874,4.651772,4.626427,4.511390,4.623991,4.602176,4.616950,4.619849,4.619884,4.619807,4.620022,4.619273,4.620298,4.619834,4.619046,4.618617,4.619072,4.618947,4.617161,4.617258,4.616776,4.617868,4.617240,4.616390,4.617747,4.619114,4.619910,4.619196,4.618675,4.617587,4.617676,4.616322,4.615362,4.616200,4.618583,4.597945,4.271274,4.148581,3.966101,3.929898,3.922265,3.961152,4.518472,4.524848,4.522086,4.518472,4.519855,4.527463,4.490656,4.209652,4.200529,4.204187,4.210968,4.225113,4.507180,4.601080,4.617009,4.618806,4.624381,4.622987,4.624495,4.625048,4.627252,4.626754,4.626365,4.628515,4.629898,4.632204,4.633381,4.632295,4.632157,4.633747,4.633508,4.634109,4.636578,4.638457,4.640687,4.639595,4.638722,4.638439,4.638278,4.638650,4.638226,4.636672,4.632997,4.607435,4.586236,4.585585,4.599382,4.603545,4.609205,4.614149,4.621016,4.623483,4.627467,4.629191,4.631720,4.630893,4.632006,4.633106,4.632148,4.631270,4.630950,4.631598,4.632011,4.631389,4.630828,4.629295,4.628535,4.627336,4.625164,4.624606,4.624760,4.625379,4.626360,4.600361,4.405045,4.336168,4.319192,4.305892,4.297856,4.290054,4.288415,4.348664,4.558372,4.619861,4.616995,4.616714,4.613319,4.615424,4.614930,4.615649,4.616142,4.615385,4.615440,4.615381,4.614820,4.616088,4.617145,4.617887,4.619193,4.618646,4.617517,4.615032,4.614995,4.612790,4.612700,4.610730,4.609467,4.608991,4.606381,4.601783,4.602152,4.601166,4.603697,4.601385,4.590025,4.448382,4.272052,4.129691,4.011847,3.972813,3.949760,3.925876,3.853026,3.805751,3.786288,3.767545,3.757466,3.746276,3.732144,3.718871,3.709620,3.704433,3.698270,3.691840
3.732894,3.583053,3.540149,3.650071,3.735834,3.731993,3.719242,3.692802,3.666403,3.550360,3.384023,3.357737,3.351665,3.351355,3.354939,3.367444,3.376927,3.386772,3.383281,3.418626,3.469272,3.420782,3.426354,3.441797,3.453931,3.464831,3.526756,3.511493,3.664466,3.597072,3.554699,3.559047,3.565378,3.557170,3.597203,3.632984,4.059115,4.667777,4.655196,4.661740,4.662383,4.665456,4.662022,4.660611,4.660271,4.659805,4.660178,4.661808,4.661610,4.661597,4.661847,4.663319,4.666037,4.665009,4.664006,4.671307,4.668172,4.546335,4.293045,4.224132,4.270101,4.171731,3.923908,3.839772,4.095039,4.389261,4.510018,4.560629,4.581522,4.583077,4.573544,4.552997,4.481890,4.276362,3.897039,3.861999,3.920143,4.217306,4.013309,4.472353,4.484937,4.477921,4.020154,4.027690,3.847581,3.814959,3.814128,3.957078,4.588246,4.608106,4.528550,3.829760,3.830016,4.140331,4.379212,4.031583,3.852593,4.177720,4.592620,4.623226,4.630851,4.637686,4.641757,4.646039,4.645543,4.645868,4.645720,4.648077,4.648908,4.649768,4.649805,4.651591,4.651351,4.652820,4.651722,4.650925,4.651003,4.648794,4.647835,4.649049,4.650718,4.653339,4.654416,4.654139,4.653737,4.654573,4.653070,4.654371,4.651707,4.648193,4.645636,4.643372,4.637475,4.640848,4.590322,4.304426,4.279052,4.279813,4.283180,4.284101,4.328615,4.585695,4.625944,4.621011,4.619784,4.616709,4.613764,4.614604,4.618051,4.619704,4.621193,4.622996,4.625039,4.625998,4.624556,4.623882,4.623888,4.619370,4.610419,4.623126,4.619141,4.618421,4.614089,4.614730,4.612278,4.611022,4.609763,4.610708,4.610292,4.608686,4.609195,4.609802,4.608248,4.607480,4.606687,4.607723,4.607428,4.606881,4.605155,4.605975,4.608083,4.606652,4.606897,4.606116,4.604730,4.604990,4.604033,4.602455,4.602106,4.601848,4.597487,4.570758,4.492508,4.106530,4.057758,3.973521,4.078278,4.472778,4.546670,4.558240,4.551526,4.548500,4.538223,4.512021,4.236226,4.220805,4.223085,4.226959,4.241817,4.501495,4.595877,4.610820,4.612887,4.615511,4.614119,4.615025,4.615647,4.617493,4.617160,4.617283,4.618923,4.621099,4.623562,4.624756,4.623878,4.624856,4.625921,4.625286,4.625595,4.626850,4.629233,4.629730,4.629700,4.628446,4.627892,4.629141,4.627049,4.625963,4.624986,4.619755,4.611346,4.606381,4.601121,4.604656,4.606088,4.610479,4.613686,4.617356,4.616580,4.619624,4.619936,4.622708,4.622575,4.624540,4.624969,4.624147,4.623232,4.623948,4.624895,4.623117,4.623400,4.621908,4.621299,4.619858,4.618423,4.616604,4.615318,4.615863,4.615399,4.617681,4.588203,4.398683,4.337422,4.324641,4.314304,4.306594,4.297401,4.295614,4.386261,4.580458,4.605214,4.607634,4.609093,4.605163,4.606162,4.605990,4.605945,4.606214,4.605739,4.605145,4.605365,4.605052,4.605923,4.606884,4.607921,4.608562,4.608887,4.608422,4.605748,4.605858,4.603429,4.603001,4.601620,4.601949,4.600784,4.598541,4.597155,4.595823,4.594856,4.596012,4.590244,4.585957,4.562001,4.498617,4.355108,4.167277,4.075718,4.020113,3.966992,3.881684,3.823688,3.799459,3.783526,3.773125,3.758343,3.742911,3.727005,3.717894,3.713765,3.705591,3.696845
3.741430,3.791095,3.798303,3.793269,3.778299,3.747944,3.734138,3.700289,3.681748,3.661927,3.636395,3.460410,3.366867,3.365142,3.363375,3.371276,3.392586,3.452841,3.473881,3.493918,3.521490,3.449223,3.440944,3.441346,3.430156,3.469592,3.880385,4.172987,4.136137,3.869245,3.606635,3.588237,3.566792,3.572980,3.586716,3.631467,4.002614,4.636517,4.652452,4.650186,4.653066,4.657811,4.655376,4.654631,4.654833,4.654492,4.656046,4.657373,4.656164,4.657663,4.658965,4.659031,4.658352,4.658482,4.656969,4.660218,4.659004,4.642336,4.574814,4.292739,4.116220,4.089355,3.934245,3.876925,3.928921,4.333619,4.468475,4.548153,4.575249,4.583559,4.580375,4.555829,4.482059,4.350758,4.020710,4.036868,4.050877,4.256620,4.175342,4.443771,4.459848,4.490493,3.941155,4.054830,3.845799,3.840633,3.762150,3.889156,4.537706,4.591791,4.555834,3.963392,3.789200,4.177073,4.649444,4.556055,3.960058,4.105497,4.542644,4.633555,4.628795,4.632617,4.634182,4.638443,4.639347,4.638168,4.636063,4.637746,4.638416,4.639647,4.639748,4.641110,4.641512,4.642942,4.643538,4.642246,4.643135,4.643021,4.642570,4.644186,4.643538,4.645639,4.645575,4.645220,4.644025,4.643548,4.640338,4.643844,4.641229,4.636693,4.634559,4.632944,4.626797,4.628965,4.582403,4.305477,4.282447,4.284677,4.287522,4.289903,4.319070,4.576997,4.612729,4.606850,4.605020,4.604316,4.602794,4.603287,4.606637,4.607934,4.608989,4.609017,4.609554,4.611121,4.611485,4.611770,4.610525,4.610521,4.608892,4.611307,4.611082,4.607346,4.605451,4.605020,4.603179,4.600359,4.599853,4.600485,4.599179,4.598460,4.598054,4.599149,4.597867,4.597310,4.596099,4.596179,4.596527,4.596088,4.595362,4.596021,4.596589,4.594831,4.594435,4.593071,4.591240,4.591134,4.590068,4.588219,4.588591,4.589862,4.583326,4.584185,4.583513,4.548278,4.571785,4.555394,4.533147,4.557319,4.563545,4.562075,4.556473,4.554340,4.559266,4.499767,4.252178,4.236958,4.238441,4.241368,4.249729,4.476388,4.595816,4.605020,4.603628,4.604417,4.603538,4.605773,4.605812,4.607777,4.607478,4.608847,4.609909,4.610987,4.613071,4.614622,4.614592,4.615527,4.617184,4.616633,4.617403,4.618441,4.620067,4.620314,4.619703,4.618350,4.617877,4.616945,4.615644,4.614921,4.612679,4.609491,4.602949,4.599523,4.596820,4.600226,4.601045,4.604093,4.607925,4.609106,4.608718,4.610901,4.611469,4.613703,4.614024,4.615116,4.615262,4.614299,4.613211,4.613695,4.614176,4.613048,4.613215,4.612518,4.610992,4.609899,4.608090,4.606751,4.604822,4.605229,4.604578,4.606843,4.575398,4.405347,4.339194,4.324509,4.316490,4.309207,4.300470,4.298822,4.430333,4.596357,4.596941,4.598586,4.600386,4.596503,4.597254,4.596586,4.596617,4.597137,4.596773,4.595701,4.594696,4.594840,4.595865,4.597269,4.597950,4.598240,4.598979,4.598919,4.597457,4.596881,4.594777,4.592013,4.591706,4.590828,4.590580,4.590457,4.587482,4.588186,4.586188,4.583724,4.581064,4.577079,4.571101,4.553399,4.518728,4.420826,4.318395,4.178631,4.058746,3.927826,3.859440,3.832362,3.817563,3.795284,3.773882,3.757236,3.741636,3.729661,3.722275,3.713089,3.702922
3.743847,3.779954,3.804533,3.799325,3.798236,3.765926,3.746841,3.707103,3.691339,3.700505,3.756301,3.719551,3.568892,3.433688,3.386136,3.383626,3.419472,3.500832,3.510420,3.516978,3.506404,3.477618,3.468010,3.498125,3.765833,3.682918,3.903944,4.185755,4.177189,4.161710,4.180659,3.696449,3.575953,3.576403,3.575321,3.741812,4.588699,4.643153,4.642756,4.639588,4.643805,4.646558,4.644705,4.644458,4.643434,4.644900,4.646099,4.647686,4.648820,4.649890,4.652111,4.653917,4.653665,4.651701,4.647204,4.648638,4.644125,4.642014,4.624865,4.578382,4.446392,4.112237,3.987154,3.966280,4.024465,4.364881,4.457001,4.530496,4.562353,4.571777,4.567008,4.534505,4.487012,4.392130,4.141373,4.046392,4.066394,4.207916,4.298199,4.329679,4.448870,4.552013,3.867401,4.261543,4.122960,4.678010,4.658987,4.601175,4.585113,4.567767,4.555642,4.553305,3.843716,4.350024,4.604485,4.069931,3.889898,3.942150,3.946658,4.575675,4.619891,4.622706,4.626436,4.632419,4.632482,4.628657,4.627797,4.627752,4.627072,4.627501,4.628638,4.629382,4.630359,4.630296,4.631302,4.631420,4.632666,4.634468,4.632894,4.634819,4.634605,4.635722,4.634232,4.632817,4.633169,4.632469,4.630843,4.630579,4.628871,4.625673,4.623918,4.621871,4.616084,4.614296,4.560059,4.324746,4.289220,4.288481,4.289746,4.292466,4.307766,4.578945,4.598000,4.591034,4.590563,4.588655,4.586991,4.589712,4.592821,4.593812,4.594376,4.595039,4.596167,4.597300,4.597302,4.597149,4.597857,4.596878,4.594634,4.595213,4.596115,4.595006,4.594341,4.592656,4.591087,4.589882,4.588480,4.588327,4.586624,4.585919,4.585995,4.586579,4.585721,4.585204,4.584378,4.584061,4.584309,4.582980,4.582378,4.584945,4.584168,4.582753,4.580637,4.577920,4.575878,4.575752,4.575133,4.573705,4.574685,4.574246,4.571188,4.565722,4.565848,4.561692,4.558106,4.558323,4.556244,4.556203,4.557809,4.558146,4.553995,4.552265,4.555938,4.491090,4.264645,4.253259,4.252160,4.251770,4.263373,4.451797,4.586558,4.593853,4.591326,4.593946,4.591525,4.593308,4.594392,4.595160,4.594126,4.595302,4.598808,4.600064,4.601720,4.602726,4.602783,4.604217,4.605379,4.605762,4.605974,4.606728,4.607951,4.607887,4.607462,4.606324,4.606082,4.604862,4.603520,4.602398,4.601183,4.599969,4.594460,4.592381,4.590293,4.594565,4.595530,4.597579,4.598465,4.598609,4.599533,4.600178,4.601345,4.603086,4.602855,4.604283,4.603937,4.602812,4.601779,4.602617,4.603183,4.602424,4.602052,4.600574,4.599566,4.598548,4.596859,4.594423,4.592390,4.591782,4.590934,4.591634,4.544148,4.394045,4.341076,4.328371,4.318620,4.311981,4.304519,4.309595,4.487371,4.584308,4.586129,4.589090,4.590455,4.585819,4.587455,4.586342,4.585814,4.585838,4.584630,4.584714,4.582991,4.582727,4.583638,4.584770,4.585631,4.587187,4.587598,4.588453,4.586835,4.585070,4.584972,4.583271,4.580394,4.578265,4.579041,4.581313,4.579508,4.578749,4.576859,4.573762,4.570532,4.565779,4.559473,4.548162,4.527912,4.457518,4.382694,4.265562,4.140513,3.972422,3.880681,3.851026,3.833128,3.811166,3.786914,3.771082,3.752132,3.739162,3.730456,3.721844,3.712079
3.748176,3.759983,3.763939,3.785197,3.816516,3.787723,3.760804,3.716552,3.711342,3.741877,3.793947,3.786869,3.780049,3.753169,3.624994,3.694043,3.677489,3.549203,3.522013,3.507242,3.474626,3.478353,3.484626,3.500523,3.710033,3.703965,4.015049,4.241002,4.207647,3.831543,3.908656,3.644532,3.577949,3.577623,3.581933,3.649388,4.608944,4.634360,4.634373,4.637076,4.636340,4.635803,4.635067,4.635508,4.635599,4.634467,4.636643,4.639391,4.640101,4.643023,4.645772,4.648723,4.648359,4.644921,4.640961,4.639357,4.634521,4.631733,4.628224,4.621142,4.581162,4.473917,4.085695,4.013061,4.041529,4.263296,4.423292,4.523820,4.544508,4.554752,4.552965,4.522205,4.505067,4.425197,4.221656,4.083776,4.067963,4.171379,4.257144,4.265898,4.423295,4.566408,4.387974,4.533452,4.598188,4.634778,4.623938,4.589988,4.588993,4.552920,4.491637,4.435886,4.193668,4.527902,4.554368,4.563934,3.987506,3.882668,3.972465,4.544301,4.603107,4.609163,4.615958,4.621781,4.624070,4.619898,4.618749,4.617810,4.618018,4.618398,4.619205,4.620953,4.621066,4.621974,4.622225,4.622500,4.624094,4.625716,4.625503,4.624783,4.625049,4.623790,4.623652,4.621716,4.619840,4.620800,4.618289,4.617680,4.615249,4.613680,4.611320,4.609890,4.605500,4.602793,4.552090,4.362187,4.295385,4.292839,4.294510,4.298032,4.308804,4.569678,4.583526,4.579735,4.578006,4.576675,4.574603,4.577173,4.579846,4.581052,4.581718,4.581691,4.582492,4.583664,4.584488,4.583901,4.584993,4.585678,4.583643,4.583267,4.582851,4.582007,4.582600,4.581564,4.581018,4.579477,4.578480,4.577418,4.576074,4.574313,4.574077,4.574904,4.573282,4.573239,4.572262,4.572918,4.573259,4.572240,4.571124,4.571702,4.571492,4.569956,4.568351,4.565908,4.564386,4.563513,4.563091,4.560686,4.562955,4.563056,4.561099,4.558118,4.556530,4.553170,4.551069,4.552611,4.550924,4.549598,4.548944,4.550482,4.549276,4.550224,4.555350,4.487256,4.280295,4.266709,4.264446,4.265926,4.271310,4.477492,4.572935,4.582638,4.580675,4.583599,4.582227,4.582005,4.582782,4.583501,4.582895,4.583862,4.587272,4.589706,4.591177,4.593002,4.591894,4.593269,4.596375,4.597036,4.597082,4.597641,4.599346,4.599254,4.598328,4.596345,4.595298,4.594947,4.593160,4.591887,4.591496,4.591805,4.588170,4.586233,4.585079,4.586459,4.586898,4.587880,4.588017,4.587836,4.588581,4.589432,4.590715,4.592360,4.591949,4.592772,4.592837,4.592326,4.591486,4.592550,4.593071,4.591669,4.591637,4.590024,4.589281,4.586674,4.585078,4.582997,4.580340,4.578911,4.578990,4.583000,4.529172,4.377472,4.340119,4.330841,4.323032,4.316316,4.309417,4.325781,4.526605,4.571856,4.579262,4.579418,4.580664,4.575376,4.576242,4.575904,4.573792,4.573560,4.572337,4.572292,4.571593,4.571922,4.573244,4.574051,4.576517,4.576463,4.576184,4.576174,4.574844,4.574550,4.573203,4.572737,4.570623,4.571617,4.572336,4.571715,4.570565,4.570920,4.568443,4.565897,4.564146,4.561404,4.557487,4.549745,4.530931,4.466258,4.407073,4.321863,4.165401,3.971856,3.889743,3.859553,3.836215,3.816610,3.794712,3.780995,3.759169,3.743465,3.735302,3.728497,3.719299
3.748759,3.755218,3.758639,3.769404,3.815036,3.797264,3.764929,3.729188,3.728444,3.778275,3.812676,3.805265,3.804821,3.799155,3.814476,3.890193,3.854863,3.586036,3.529862,3.509818,3.484705,3.473258,3.491377,3.499701,3.536124,3.621759,4.073922,4.179529,4.183713,3.673657,3.644609,3.611281,3.580988,3.578486,3.603714,3.643352,4.599918,4.612865,4.622085,4.625688,4.625882,4.623359,4.621241,4.623532,4.624401,4.624054,4.624522,4.627528,4.627721,4.631639,4.634990,4.638631,4.638888,4.637417,4.634304,4.632314,4.628467,4.626497,4.627791,4.625242,4.624033,4.581732,4.333237,4.085114,4.088299,4.183570,4.367815,4.533435,4.537712,4.544220,4.544400,4.530900,4.509307,4.436003,4.256538,4.149842,4.151707,4.180787,4.209717,4.239295,4.375722,4.593734,4.612446,4.621590,4.643671,4.641691,4.642599,4.627498,4.616579,4.567066,4.320524,4.225296,4.611437,4.555727,4.352358,4.019666,4.111539,4.246041,4.114874,4.497939,4.593064,4.609058,4.611734,4.608694,4.609363,4.611755,4.608202,4.606339,4.607027,4.607791,4.608486,4.609892,4.611060,4.612013,4.613982,4.612228,4.613036,4.613502,4.614403,4.612959,4.611353,4.609794,4.610037,4.609203,4.605777,4.604120,4.604053,4.602903,4.602703,4.600579,4.599538,4.599689,4.598668,4.598801,4.546101,4.365599,4.302317,4.298667,4.298123,4.301123,4.312747,4.565807,4.569629,4.564788,4.562666,4.562142,4.562371,4.563482,4.566070,4.567702,4.569302,4.570825,4.570661,4.571610,4.572423,4.573737,4.573049,4.574007,4.571940,4.571102,4.570999,4.570115,4.570142,4.569176,4.569575,4.568408,4.567442,4.565940,4.564340,4.563001,4.561452,4.562960,4.561470,4.561909,4.561557,4.560322,4.562202,4.560972,4.561103,4.560307,4.559917,4.557297,4.556087,4.554407,4.552351,4.551454,4.549303,4.548744,4.549051,4.550152,4.546873,4.544546,4.544065,4.543563,4.541927,4.542181,4.542991,4.543213,4.540950,4.542299,4.543166,4.545548,4.550133,4.480741,4.280384,4.277218,4.274444,4.274661,4.282907,4.490140,4.562480,4.569251,4.568731,4.572050,4.571415,4.572431,4.571843,4.572309,4.571688,4.572502,4.575549,4.577072,4.578977,4.580480,4.581640,4.580968,4.584105,4.585342,4.586188,4.587105,4.588587,4.587785,4.585746,4.585522,4.584517,4.583782,4.581831,4.582030,4.582183,4.581249,4.578824,4.576756,4.576118,4.576634,4.577981,4.577960,4.577911,4.578109,4.578791,4.579526,4.580256,4.582646,4.582345,4.582333,4.582406,4.581606,4.583082,4.582057,4.581968,4.580236,4.580559,4.579549,4.577485,4.575297,4.573620,4.572141,4.568215,4.565822,4.563718,4.570098,4.521571,4.370690,4.338921,4.333198,4.328486,4.322514,4.313343,4.353272,4.546988,4.564483,4.568866,4.568049,4.568439,4.565714,4.566137,4.565349,4.564269,4.563280,4.563029,4.561291,4.560832,4.561826,4.562967,4.564492,4.565824,4.565616,4.565558,4.565651,4.564314,4.564626,4.563501,4.563936,4.564041,4.563192,4.562496,4.561493,4.560275,4.562625,4.560113,4.557478,4.554682,4.553174,4.549287,4.541218,4.525419,4.465553,4.424759,4.356031,4.154547,3.935533,3.888875,3.864159,3.845713,3.825034,3.805189,3.790568,3.763640,3.748142,3.738901,3.733536,3.727105
3.755166,3.755389,3.756495,3.762319,3.809328,3.785383,3.762149,3.744753,3.747799,3.796826,3.823402,3.816988,3.814186,3.809170,3.819924,3.948551,3.990863,3.672105,3.550959,3.512060,3.502340,3.475709,3.495750,3.500940,3.523016,3.662870,4.097091,4.169133,4.152812,3.675133,3.621627,3.597434,3.582460,3.607900,4.135647,4.420290,4.586942,4.604169,4.605061,4.613986,4.617917,4.613677,4.613643,4.615707,4.616122,4.615329,4.616955,4.619356,4.619717,4.621578,4.625550,4.629747,4.632157,4.631220,4.627704,4.627326,4.624292,4.622710,4.622801,4.620058,4.621439,4.619398,4.572677,4.229812,4.131536,4.160051,4.271555,4.459940,4.512532,4.532545,4.540582,4.531944,4.514488,4.448692,4.272017,4.176585,4.176726,4.189132,4.204344,4.222759,4.327482,4.549881,4.610301,4.630403,4.635984,4.633417,4.629402,4.631192,4.629000,4.563932,4.137329,4.024735,4.570119,4.565413,4.013394,4.040272,4.029861,4.073491,4.076239,4.033819,4.558002,4.609635,4.607751,4.601857,4.598895,4.602629,4.600906,4.598837,4.599526,4.598782,4.599451,4.601550,4.603374,4.603261,4.603246,4.604025,4.604454,4.604921,4.604469,4.601730,4.601529,4.600274,4.600139,4.598420,4.596255,4.595235,4.593794,4.592037,4.590856,4.589282,4.589821,4.589797,4.587703,4.586188,4.541070,4.374416,4.306824,4.301029,4.301926,4.307407,4.321671,4.544405,4.556095,4.551103,4.548975,4.548847,4.548765,4.552243,4.555604,4.557228,4.559083,4.560417,4.560476,4.561321,4.562005,4.561510,4.562129,4.562404,4.560697,4.559839,4.559778,4.559532,4.559430,4.559143,4.559105,4.559060,4.558336,4.556389,4.554420,4.552656,4.552897,4.553359,4.552672,4.553186,4.552200,4.552676,4.552607,4.552505,4.551424,4.550581,4.550029,4.547833,4.545864,4.543815,4.543713,4.542289,4.539592,4.537534,4.537691,4.538442,4.535916,4.534538,4.534856,4.535465,4.535338,4.535274,4.535704,4.535926,4.535640,4.536988,4.537706,4.539577,4.546506,4.492180,4.301884,4.287037,4.287584,4.286562,4.296739,4.488220,4.546409,4.555342,4.558361,4.562134,4.560843,4.561014,4.562252,4.562888,4.562271,4.561350,4.565537,4.568174,4.569588,4.571047,4.571340,4.572411,4.574658,4.576535,4.577274,4.577525,4.579442,4.578024,4.577147,4.575861,4.576302,4.576273,4.574352,4.574022,4.573871,4.573305,4.571022,4.569769,4.567527,4.568635,4.569193,4.569298,4.569726,4.569815,4.570852,4.571579,4.572427,4.573597,4.572984,4.572817,4.572617,4.573185,4.572032,4.573026,4.571885,4.570628,4.569880,4.568033,4.567062,4.564879,4.562949,4.559476,4.556958,4.556004,4.552383,4.549250,4.506168,4.384081,4.341360,4.339690,4.336953,4.331438,4.316719,4.383061,4.559440,4.559131,4.560095,4.558331,4.558699,4.556233,4.556664,4.557745,4.556183,4.555030,4.552887,4.553313,4.552857,4.553845,4.554402,4.555344,4.557075,4.557343,4.557203,4.556190,4.555925,4.556308,4.556262,4.556107,4.554650,4.554903,4.554910,4.553409,4.551576,4.554181,4.553309,4.551418,4.549905,4.547920,4.546669,4.539274,4.523445,4.472940,4.435566,4.347948,4.063128,3.918709,3.881727,3.863305,3.847166,3.828466,3.812098,3.794577,3.772125,3.757372,3.746793,3.739254,3.735291
3.755033,3.757501,3.761667,3.760058,3.793498,3.776772,3.764110,3.762955,3.758707,3.774717,3.802229,3.817645,3.821896,3.814581,3.827486,3.952036,4.110817,3.840954,3.570377,3.511039,3.506475,3.483544,3.496664,3.500296,3.527672,3.793397,4.113210,4.177439,4.175798,3.576979,3.597404,3.589069,3.581676,3.667291,4.509602,4.612082,4.594826,4.592696,4.597065,4.604485,4.607137,4.603437,4.603936,4.607620,4.609105,4.607427,4.607160,4.608581,4.609700,4.610958,4.614758,4.617758,4.620838,4.620533,4.618547,4.618977,4.616449,4.615774,4.617318,4.615983,4.614667,4.616292,4.613838,4.520802,4.184546,4.174426,4.213438,4.345491,4.468390,4.520875,4.529890,4.527175,4.517306,4.466815,4.276679,4.201034,4.187539,4.189959,4.196681,4.210702,4.284712,4.498787,4.600690,4.618641,4.626866,4.625682,4.623140,4.629009,4.628829,4.559765,3.920089,3.974318,4.226804,4.535134,4.021592,4.062970,3.998801,3.986387,4.133653,4.081170,4.544429,4.607222,4.599771,4.596208,4.592327,4.592883,4.591332,4.591464,4.591245,4.589686,4.589567,4.591297,4.592998,4.592615,4.592456,4.592504,4.594095,4.595011,4.594488,4.592907,4.591218,4.590643,4.588706,4.586518,4.584053,4.581623,4.580261,4.580022,4.577979,4.576372,4.577942,4.575756,4.572875,4.566003,4.528177,4.396805,4.314780,4.306925,4.307524,4.314503,4.333162,4.521473,4.541445,4.536855,4.536252,4.536908,4.537855,4.540463,4.544002,4.546608,4.548296,4.549042,4.549286,4.551080,4.551861,4.551242,4.550452,4.550794,4.549988,4.549219,4.549326,4.549003,4.549059,4.549202,4.548979,4.547938,4.547114,4.546248,4.543824,4.542840,4.542477,4.543592,4.544021,4.543255,4.542614,4.542634,4.542131,4.541539,4.540721,4.540114,4.538296,4.537674,4.534921,4.533468,4.531914,4.531673,4.529436,4.526592,4.526552,4.525974,4.525915,4.524095,4.524450,4.524209,4.525153,4.525940,4.526153,4.526311,4.524990,4.527462,4.528706,4.528865,4.537042,4.501949,4.325764,4.300321,4.300651,4.300011,4.305883,4.479174,4.530282,4.540647,4.544357,4.549068,4.549180,4.549758,4.551186,4.551885,4.550842,4.550497,4.554350,4.556775,4.559259,4.560136,4.560503,4.560719,4.563769,4.566169,4.567694,4.567322,4.567676,4.567810,4.565953,4.564652,4.564828,4.564875,4.564545,4.564142,4.563888,4.562857,4.561985,4.560445,4.558330,4.559333,4.559055,4.560264,4.560043,4.560699,4.561089,4.562523,4.562828,4.563484,4.563542,4.563419,4.563358,4.562841,4.562244,4.561259,4.560647,4.560066,4.557853,4.555909,4.553591,4.552618,4.550289,4.545886,4.540392,4.536836,4.530243,4.518460,4.474076,4.383552,4.346061,4.343469,4.341162,4.335985,4.329453,4.427101,4.555960,4.553865,4.552035,4.550357,4.550323,4.547998,4.547051,4.547625,4.547130,4.545638,4.543918,4.543911,4.544255,4.545333,4.545099,4.545227,4.546319,4.546887,4.546577,4.546313,4.545033,4.545668,4.546512,4.546158,4.544135,4.543138,4.545491,4.544284,4.542344,4.544566,4.544597,4.544173,4.542873,4.541770,4.538846,4.530883,4.517060,4.472645,4.436791,4.267296,3.966406,3.901156,3.879723,3.862984,3.847668,3.833507,3.818841,3.803373,3.786283,3.769884,3.757953,3.751316,3.745977
3.754426,3.764826,3.769574,3.761755,3.779856,3.784009,3.781809,3.769951,3.762569,3.780088,3.821930,3.813708,3.829251,3.826370,3.843312,3.951748,4.158765,4.029240,3.609205,3.524326,3.506289,3.491734,3.498931,3.505052,3.526853,3.624513,3.902222,4.015154,4.230706,3.635330,3.622933,3.578135,3.755556,4.489365,4.558618,4.589228,4.584376,4.586061,4.590825,4.594917,4.596809,4.593408,4.595254,4.597838,4.598670,4.596645,4.596665,4.598561,4.599230,4.600825,4.603740,4.608638,4.610735,4.610261,4.609916,4.611096,4.610421,4.608509,4.607839,4.607698,4.605090,4.604702,4.607908,4.594968,4.390016,4.197227,4.201136,4.256031,4.388742,4.505744,4.523484,4.522602,4.509084,4.474652,4.277620,4.230558,4.195540,4.194062,4.195234,4.206216,4.251235,4.432001,4.599640,4.620094,4.620688,4.618763,4.618491,4.626852,4.631215,4.579175,3.949535,3.961131,3.977354,4.084921,4.348902,4.355123,3.990743,4.245130,4.569259,4.562407,4.584583,4.596909,4.592894,4.590174,4.585479,4.582976,4.581773,4.581241,4.580712,4.579767,4.579518,4.581373,4.581591,4.581460,4.581188,4.581766,4.582568,4.582213,4.582152,4.581330,4.580993,4.579164,4.577462,4.574980,4.571412,4.569498,4.568002,4.566981,4.565176,4.563996,4.564726,4.563517,4.558041,4.550580,4.519817,4.414328,4.318096,4.315614,4.313762,4.319883,4.335747,4.497343,4.524894,4.524310,4.525107,4.524825,4.526935,4.529374,4.532427,4.533733,4.536040,4.536615,4.537837,4.539075,4.540573,4.539980,4.538952,4.539821,4.538212,4.537838,4.537357,4.538495,4.538229,4.537736,4.537373,4.536026,4.535635,4.533682,4.531667,4.530816,4.531676,4.533595,4.532319,4.531365,4.530005,4.529492,4.529736,4.529810,4.528247,4.528297,4.528083,4.526366,4.524432,4.522721,4.521033,4.520155,4.518748,4.515366,4.512945,4.514166,4.512887,4.511624,4.512096,4.512391,4.514055,4.514637,4.514109,4.514141,4.514513,4.515289,4.515418,4.517121,4.525106,4.493298,4.332799,4.314109,4.313089,4.310387,4.317789,4.474473,4.514093,4.524296,4.530479,4.535983,4.536233,4.537753,4.539383,4.540184,4.538999,4.539300,4.542784,4.544166,4.546096,4.547874,4.548876,4.549742,4.552048,4.553630,4.556187,4.555658,4.556161,4.555710,4.555063,4.554003,4.554146,4.555262,4.554267,4.553444,4.552927,4.552736,4.552200,4.550659,4.548375,4.549389,4.550175,4.550978,4.549838,4.549974,4.551353,4.552796,4.552691,4.553356,4.553138,4.554087,4.553323,4.552484,4.552601,4.550281,4.550177,4.547758,4.546236,4.544557,4.542137,4.540302,4.537402,4.533700,4.525923,4.518000,4.504269,4.495110,4.452858,4.373699,4.345237,4.345624,4.342557,4.338598,4.332930,4.454164,4.536960,4.538784,4.538446,4.538497,4.538885,4.537751,4.537127,4.536583,4.536141,4.535265,4.533658,4.533879,4.534953,4.534488,4.534708,4.534663,4.535099,4.535792,4.535553,4.535705,4.534428,4.535283,4.535182,4.534485,4.531958,4.533224,4.534378,4.531511,4.530464,4.531391,4.532856,4.532460,4.533057,4.534175,4.533387,4.527151,4.512774,4.474960,4.379618,4.130534,3.924263,3.888133,3.873745,3.859680,3.846704,3.833922,3.821809,3.811625,3.799455,3.788727,3.777503,3.767375,3.757704
3.759629,3.773382,3.774479,3.769242,3.771654,3.777653,3.781295,3.775801,3.769646,3.788551,3.845542,3.803723,3.814036,3.853974,4.124877,4.132689,4.161458,4.122747,3.620061,3.564983,3.508546,3.495634,3.511086,3.518736,3.521759,3.566589,3.667454,3.715422,4.191790,3.727741,3.652084,3.735366,4.467104,4.586456,4.559079,4.555387,4.568678,4.575935,4.580478,4.584729,4.588132,4.586510,4.588039,4.589537,4.590011,4.588063,4.587807,4.589869,4.590427,4.591478,4.594672,4.598700,4.601828,4.601790,4.601930,4.603312,4.603367,4.602263,4.601155,4.599486,4.598592,4.597874,4.595306,4.599300,4.556607,4.257923,4.207601,4.232812,4.319721,4.467345,4.501750,4.510908,4.494573,4.459901,4.290575,4.252027,4.201164,4.191433,4.192409,4.202113,4.228012,4.357544,4.581362,4.605153,4.608739,4.611683,4.612201,4.620572,4.627106,4.574383,4.042113,4.150939,3.974364,4.024614,4.478930,4.606310,4.621797,4.585186,4.574452,4.583343,4.581702,4.580594,4.579864,4.578729,4.575602,4.573287,4.572206,4.573603,4.572835,4.571246,4.570583,4.572253,4.572427,4.572262,4.571435,4.571288,4.572806,4.572377,4.572227,4.571670,4.570518,4.569335,4.567380,4.565178,4.561090,4.558625,4.556860,4.555597,4.553408,4.551980,4.551336,4.549804,4.544011,4.536584,4.510273,4.410379,4.321180,4.320045,4.316870,4.325829,4.345791,4.469979,4.508672,4.511662,4.512538,4.513954,4.515637,4.518028,4.521824,4.522090,4.524170,4.524581,4.526453,4.527262,4.528740,4.528123,4.526927,4.527153,4.525735,4.525522,4.525132,4.525263,4.525593,4.524805,4.525032,4.523856,4.523078,4.521020,4.520056,4.519409,4.520385,4.522127,4.521552,4.520951,4.519015,4.517924,4.517767,4.517663,4.516866,4.517435,4.517072,4.515443,4.514583,4.511244,4.510201,4.507954,4.505851,4.504108,4.503370,4.502434,4.501229,4.500307,4.501104,4.500834,4.501692,4.501839,4.500998,4.503033,4.503154,4.503979,4.503113,4.505287,4.511830,4.484004,4.338646,4.324603,4.324312,4.321076,4.324095,4.461858,4.504760,4.515451,4.520144,4.524443,4.525186,4.527081,4.527781,4.529114,4.528249,4.529047,4.531732,4.533021,4.535553,4.537074,4.538054,4.539195,4.541244,4.543212,4.544663,4.545004,4.545612,4.544384,4.545013,4.543140,4.543464,4.544162,4.544377,4.545353,4.544037,4.542817,4.542817,4.540570,4.538208,4.539054,4.540402,4.540706,4.541549,4.541386,4.542167,4.543548,4.543095,4.543930,4.543874,4.543918,4.543669,4.543059,4.542367,4.539600,4.539245,4.536260,4.536015,4.533488,4.531266,4.528555,4.524315,4.519545,4.508001,4.490926,4.475655,4.463695,4.424633,4.358361,4.348834,4.348757,4.347434,4.346357,4.349635,4.431722,4.517459,4.524712,4.526918,4.527077,4.527300,4.526621,4.524588,4.523879,4.523288,4.522689,4.522798,4.523486,4.523157,4.523446,4.523982,4.523604,4.523473,4.524085,4.523493,4.523238,4.523669,4.524350,4.524374,4.524733,4.523981,4.524178,4.523479,4.520935,4.518847,4.520400,4.522202,4.521958,4.524562,4.528275,4.530005,4.521989,4.501334,4.462928,4.290328,4.043935,3.910237,3.882882,3.869055,3.856661,3.846849,3.835046,3.825572,3.816377,3.806899,3.797262,3.787204,3.777332,3.769536
3.761425,3.774862,3.775864,3.769703,3.767929,3.776489,3.781973,3.780157,3.783588,3.799474,3.805997,3.804517,3.811087,3.846767,4.139676,4.175100,4.165111,4.133729,3.627737,3.611161,3.572064,3.538449,3.548860,3.534650,3.519882,3.554132,3.580048,3.614926,3.926612,3.743945,3.623380,3.625465,4.009665,4.527280,4.554312,4.555438,4.561281,4.568665,4.571454,4.575843,4.578788,4.578450,4.578993,4.580305,4.579454,4.577468,4.577662,4.579250,4.580105,4.580743,4.583695,4.586213,4.589833,4.589190,4.589440,4.591171,4.591450,4.592278,4.590439,4.590680,4.591573,4.590334,4.586480,4.583548,4.577567,4.477301,4.247659,4.233201,4.292112,4.399419,4.461544,4.485824,4.475589,4.448591,4.342680,4.277874,4.213134,4.194077,4.194772,4.202060,4.222286,4.286593,4.524758,4.585783,4.593432,4.598340,4.597543,4.604825,4.605945,4.596281,4.570991,4.570435,4.652427,4.226897,4.570622,4.580840,4.573668,4.570643,4.564234,4.565174,4.565559,4.566040,4.565099,4.564337,4.561733,4.560971,4.561177,4.563560,4.561667,4.558926,4.559281,4.560679,4.561596,4.560186,4.559503,4.559287,4.560298,4.560019,4.559376,4.557794,4.556083,4.554700,4.551452,4.549192,4.546132,4.543724,4.541844,4.540625,4.539273,4.537868,4.537382,4.535055,4.527608,4.522277,4.500721,4.404422,4.331165,4.324418,4.322141,4.331000,4.359834,4.446818,4.487646,4.496306,4.500734,4.501717,4.503665,4.506236,4.508460,4.509977,4.511679,4.512008,4.511621,4.513693,4.515066,4.515045,4.513968,4.514016,4.513167,4.512047,4.512531,4.512000,4.512258,4.511999,4.511634,4.511196,4.510322,4.508628,4.506919,4.506687,4.507862,4.509858,4.508668,4.508281,4.506765,4.505125,4.504865,4.503906,4.504016,4.503968,4.503358,4.501940,4.499592,4.497112,4.496703,4.494249,4.494591,4.494582,4.494318,4.490955,4.490346,4.488466,4.489004,4.488690,4.488770,4.489204,4.488274,4.489273,4.487893,4.488593,4.487583,4.486803,4.492667,4.476210,4.346665,4.335751,4.334753,4.331673,4.335051,4.446712,4.489301,4.504041,4.508836,4.512672,4.512363,4.514394,4.515021,4.515510,4.514509,4.514719,4.518561,4.519879,4.522489,4.523910,4.524532,4.525610,4.528387,4.529999,4.531208,4.533662,4.533969,4.533037,4.531566,4.531407,4.531566,4.531960,4.531959,4.531563,4.531952,4.531444,4.531854,4.530212,4.527668,4.529478,4.529704,4.530187,4.530261,4.530945,4.531654,4.532435,4.532165,4.532241,4.532239,4.531818,4.532504,4.531471,4.531296,4.529869,4.528819,4.527008,4.525260,4.521964,4.518475,4.514659,4.509141,4.502330,4.489127,4.473337,4.458655,4.446167,4.411508,4.351831,4.353656,4.352813,4.353036,4.356861,4.365738,4.413362,4.506448,4.509983,4.514013,4.514509,4.514133,4.512998,4.512788,4.511930,4.510679,4.510983,4.511626,4.511859,4.512136,4.511750,4.512288,4.512146,4.512530,4.513586,4.512383,4.511366,4.511836,4.512983,4.512801,4.512776,4.512248,4.511127,4.511553,4.510666,4.508993,4.508793,4.510574,4.511158,4.513879,4.516452,4.517219,4.514040,4.492970,4.437285,4.233022,3.991343,3.908588,3.883064,3.869190,3.856121,3.847749,3.838030,3.829833,3.823486,3.814354,3.806079,3.798064,3.789275,3.779547
3.766391,3.772005,3.774691,3.770020,3.771190,3.780647,3.787698,3.797014,3.805614,3.804385,3.806949,3.813682,3.820108,3.818611,3.969877,4.158981,4.160723,4.115238,3.628738,3.571457,3.559776,3.562364,3.566199,3.548592,3.516559,3.567650,3.573490,3.576042,3.862518,3.695189,3.622843,3.728792,4.541899,4.573750,4.556212,4.555864,4.560753,4.566277,4.568069,4.571959,4.573296,4.572597,4.572500,4.572181,4.572621,4.569058,4.569582,4.571313,4.571651,4.572883,4.574709,4.577851,4.579157,4.578412,4.578083,4.580071,4.581882,4.580746,4.581051,4.582908,4.584665,4.584976,4.581891,4.579838,4.581770,4.549942,4.325923,4.257072,4.288627,4.345936,4.401088,4.440402,4.445503,4.439493,4.387606,4.306822,4.223680,4.196685,4.193353,4.206215,4.217944,4.261130,4.444844,4.566319,4.573336,4.580411,4.581568,4.585875,4.584475,4.580269,4.571203,4.558487,4.572894,4.455640,4.561793,4.564629,4.560676,4.559397,4.558864,4.557724,4.555499,4.555187,4.553310,4.552744,4.552411,4.550435,4.551379,4.552101,4.551262,4.548628,4.549068,4.550315,4.548789,4.549119,4.547570,4.548214,4.548517,4.548668,4.548451,4.546669,4.545521,4.542484,4.540142,4.535875,4.533248,4.531328,4.529626,4.527267,4.526431,4.524440,4.523350,4.520828,4.515054,4.512181,4.489798,4.383476,4.336165,4.330347,4.330771,4.338317,4.368758,4.437253,4.472282,4.486202,4.489817,4.492066,4.492873,4.496241,4.498223,4.499307,4.500439,4.500206,4.500694,4.502084,4.503604,4.502698,4.502180,4.503032,4.501194,4.500295,4.500052,4.499784,4.499661,4.499243,4.499184,4.499017,4.498687,4.496630,4.495918,4.495082,4.496980,4.498524,4.496607,4.496602,4.494678,4.494945,4.494333,4.493785,4.492482,4.493175,4.492913,4.488921,4.487777,4.485731,4.486758,4.486188,4.485426,4.484118,4.483462,4.481294,4.480162,4.478366,4.477831,4.477539,4.478110,4.478588,4.476460,4.477528,4.476454,4.476223,4.474717,4.472750,4.477421,4.469036,4.357157,4.348740,4.347670,4.346306,4.351616,4.442255,4.478216,4.493630,4.500614,4.504270,4.502249,4.502746,4.503157,4.502047,4.502253,4.503268,4.506762,4.508658,4.509615,4.511442,4.511693,4.514152,4.516376,4.518258,4.519884,4.521159,4.522108,4.522272,4.521295,4.519871,4.520861,4.521635,4.521179,4.521266,4.520857,4.521044,4.521133,4.520127,4.517961,4.519180,4.519895,4.521662,4.521517,4.521002,4.522363,4.521959,4.521812,4.521992,4.522123,4.522084,4.521877,4.521934,4.520123,4.519696,4.517830,4.514369,4.513453,4.510280,4.506534,4.502471,4.496478,4.489075,4.476436,4.462458,4.450511,4.438979,4.400162,4.344141,4.361332,4.362531,4.360989,4.363321,4.378434,4.422255,4.495140,4.499298,4.503505,4.503682,4.503319,4.502291,4.502390,4.502216,4.499983,4.501172,4.501454,4.501097,4.501551,4.502115,4.502375,4.503068,4.503738,4.503709,4.502546,4.501474,4.501870,4.501963,4.500931,4.501105,4.500530,4.500846,4.500992,4.499413,4.498718,4.499168,4.500231,4.500638,4.504950,4.509100,4.510088,4.507778,4.477015,4.352376,4.126404,3.938251,3.897184,3.880821,3.868212,3.857936,3.850096,3.842427,3.836392,3.830787,3.823559,3.816637,3.810669,3.801498,3.794448
3.768854,3.774667,3.777744,3.776407,3.780955,3.790413,3.795998,3.821918,3.825943,3.809113,3.813163,3.824220,3.826773,3.829604,3.876840,4.056969,4.027453,3.764528,3.541444,3.530873,3.539355,3.550388,3.555360,3.563715,3.513783,3.619204,3.591091,3.582536,3.696712,3.667065,3.619248,3.652341,4.098447,4.473096,4.546889,4.549673,4.556853,4.558796,4.560773,4.564072,4.565481,4.564518,4.563169,4.562838,4.562586,4.560616,4.560830,4.562401,4.562675,4.564184,4.565868,4.567435,4.568569,4.567218,4.567561,4.569527,4.571072,4.570734,4.571445,4.572575,4.573398,4.574266,4.574414,4.574166,4.570402,4.571544,4.491772,4.295364,4.287635,4.325032,4.366978,4.413406,4.431085,4.428180,4.409299,4.345859,4.250549,4.210509,4.200695,4.215280,4.223999,4.237422,4.385333,4.549689,4.557088,4.562539,4.564641,4.570294,4.568429,4.564138,4.561902,4.561143,4.555609,4.552809,4.561885,4.556950,4.552897,4.549529,4.548792,4.548091,4.545526,4.542134,4.541770,4.541655,4.539736,4.538773,4.538249,4.539705,4.538263,4.538158,4.539211,4.539582,4.537522,4.537213,4.536720,4.535405,4.535821,4.535495,4.536175,4.535088,4.533103,4.529056,4.526767,4.525180,4.521772,4.519776,4.517314,4.515487,4.514147,4.510363,4.507722,4.505289,4.502521,4.501190,4.482278,4.368673,4.341364,4.337430,4.337165,4.345414,4.372191,4.430449,4.463466,4.474151,4.478091,4.479623,4.482148,4.484567,4.486526,4.487220,4.488730,4.488557,4.488681,4.489995,4.490718,4.490076,4.489537,4.489719,4.488045,4.486758,4.487010,4.486415,4.486555,4.486210,4.487060,4.486306,4.486267,4.484760,4.483915,4.483706,4.483429,4.484024,4.483722,4.484113,4.484048,4.483651,4.482985,4.482200,4.482309,4.481201,4.481201,4.477921,4.477085,4.476425,4.476759,4.474337,4.473164,4.473279,4.471493,4.470315,4.467355,4.466661,4.467341,4.465513,4.465469,4.464716,4.464742,4.465014,4.463764,4.462349,4.459904,4.459129,4.463511,4.456161,4.368091,4.358505,4.357476,4.353749,4.364992,4.435116,4.465003,4.482849,4.488453,4.490783,4.489557,4.490451,4.489578,4.489637,4.489641,4.491348,4.494348,4.497234,4.498179,4.499500,4.500564,4.501700,4.504384,4.505817,4.508607,4.509826,4.510957,4.510904,4.510336,4.509883,4.509882,4.509983,4.509530,4.511095,4.511556,4.510101,4.509654,4.508057,4.506971,4.508430,4.508846,4.510319,4.510410,4.510442,4.510939,4.511489,4.510515,4.511412,4.511445,4.511371,4.511559,4.511428,4.511675,4.509738,4.508314,4.504370,4.502545,4.499161,4.494757,4.489883,4.484477,4.476990,4.463958,4.450665,4.439064,4.428679,4.386205,4.350394,4.367776,4.364897,4.365514,4.366745,4.389621,4.430724,4.478792,4.486128,4.488396,4.489345,4.489923,4.490351,4.490492,4.489572,4.489272,4.490451,4.490556,4.490145,4.490425,4.490717,4.491739,4.491686,4.491335,4.490624,4.489810,4.490092,4.489514,4.488740,4.487429,4.486886,4.487083,4.488287,4.487271,4.486019,4.486171,4.488168,4.488695,4.490286,4.493357,4.498915,4.499719,4.498591,4.454616,4.283242,4.060712,3.923852,3.895365,3.880818,3.870102,3.860974,3.855534,3.849020,3.846333,3.839685,3.833251,3.826778,3.820642,3.814649,3.808572
3.771080,3.779441,3.782652,3.782192,3.787087,3.794198,3.798930,3.827490,3.836011,3.809224,3.812086,3.831811,3.828490,3.831908,3.893204,4.082084,3.873940,3.554471,3.537068,3.529414,3.534469,3.546311,3.552906,3.576789,3.541276,3.668181,3.642896,3.651104,3.641236,3.640930,3.619509,3.620686,3.672532,4.226915,4.524883,4.542522,4.549399,4.554326,4.554768,4.556385,4.557340,4.556608,4.556521,4.556103,4.555235,4.552145,4.552520,4.554491,4.554929,4.554379,4.555111,4.556698,4.557876,4.557600,4.557179,4.558777,4.560368,4.560814,4.560720,4.561009,4.562061,4.564600,4.564862,4.563469,4.562296,4.563024,4.544873,4.373859,4.303014,4.322010,4.351962,4.388960,4.412667,4.417874,4.409260,4.378777,4.278301,4.217382,4.210568,4.221070,4.233028,4.241470,4.317489,4.516645,4.539231,4.547104,4.548004,4.551729,4.549664,4.547901,4.545523,4.545653,4.544561,4.544295,4.545045,4.545425,4.544289,4.540854,4.540206,4.539228,4.534746,4.531413,4.530469,4.529626,4.527330,4.526600,4.526521,4.527085,4.528470,4.528306,4.528664,4.528926,4.528539,4.528078,4.526472,4.525393,4.525056,4.525301,4.525361,4.523571,4.522153,4.520093,4.518433,4.515329,4.512722,4.509771,4.506811,4.503911,4.500445,4.498674,4.496297,4.492780,4.489471,4.485369,4.462044,4.376762,4.348389,4.344639,4.344406,4.352269,4.379570,4.430883,4.454188,4.463477,4.467628,4.468839,4.470694,4.473364,4.475451,4.476046,4.476571,4.477391,4.477101,4.478137,4.478685,4.478345,4.478126,4.477353,4.475646,4.473969,4.473897,4.473571,4.474793,4.475394,4.475443,4.476019,4.475538,4.474742,4.473314,4.472082,4.472139,4.473379,4.474673,4.474171,4.474151,4.474248,4.473904,4.473582,4.471968,4.471152,4.471426,4.470024,4.468718,4.466784,4.466188,4.465371,4.464855,4.463688,4.461464,4.460270,4.458343,4.456944,4.455111,4.454595,4.454572,4.453448,4.453331,4.452583,4.451727,4.449489,4.446664,4.444737,4.446730,4.441208,4.382204,4.368270,4.365213,4.363349,4.383317,4.423605,4.444139,4.468440,4.473930,4.476569,4.476172,4.477708,4.477254,4.479808,4.479857,4.480613,4.483895,4.485734,4.488047,4.488773,4.490052,4.492342,4.494668,4.495853,4.498362,4.498635,4.500129,4.499686,4.500775,4.500406,4.499978,4.500237,4.498802,4.500018,4.500473,4.499467,4.499706,4.497380,4.495736,4.496691,4.497733,4.499888,4.499515,4.499266,4.500624,4.501825,4.500258,4.500108,4.500043,4.499936,4.500653,4.501684,4.501505,4.499464,4.498716,4.495188,4.492373,4.487546,4.482607,4.478862,4.473231,4.465639,4.455105,4.443892,4.432837,4.416423,4.377926,4.353327,4.368965,4.368748,4.370077,4.371150,4.395816,4.438636,4.467453,4.473180,4.475658,4.476564,4.478881,4.478631,4.478780,4.479383,4.480659,4.481135,4.481474,4.481710,4.482245,4.481417,4.481863,4.481742,4.481821,4.480604,4.477888,4.478312,4.479078,4.478976,4.477347,4.477417,4.476108,4.478119,4.476577,4.475955,4.475560,4.477252,4.478635,4.480970,4.485200,4.487978,4.487815,4.488167,4.447785,4.258890,3.989470,3.910933,3.892312,3.880497,3.871461,3.865226,3.861269,3.856685,3.854136,3.848673,3.840358,3.837520,3.832580,3.825338,3.819672
3.773164,3.781681,3.785186,3.787079,3.793941,3.800052,3.801955,3.824406,3.835901,3.812243,3.815420,3.836335,3.843393,3.848434,3.919469,4.219294,4.277105,3.814269,3.525160,3.530065,3.534016,3.541914,3.548810,3.575767,3.576782,3.658598,3.637098,3.667885,3.619654,3.622971,3.673652,3.835752,4.136191,4.434383,4.515789,4.531504,4.537736,4.542637,4.546568,4.548653,4.549685,4.548448,4.547001,4.547765,4.547088,4.543998,4.543339,4.544562,4.545134,4.544663,4.544602,4.546231,4.548404,4.548200,4.547747,4.548375,4.550137,4.550145,4.550151,4.550779,4.552123,4.552943,4.554177,4.552947,4.550330,4.548794,4.551797,4.470800,4.343282,4.329754,4.346963,4.376734,4.404341,4.410717,4.407475,4.394330,4.322691,4.226479,4.216084,4.224194,4.235581,4.245489,4.271650,4.437546,4.519038,4.528245,4.530726,4.534191,4.531852,4.531428,4.529552,4.528945,4.529637,4.530723,4.530430,4.531498,4.528887,4.525879,4.526852,4.525107,4.520979,4.517393,4.517290,4.516706,4.514734,4.513753,4.512900,4.514964,4.516299,4.515825,4.516106,4.517276,4.517544,4.517421,4.514915,4.514003,4.513862,4.513690,4.513841,4.510730,4.508770,4.506721,4.505376,4.502394,4.500123,4.497206,4.494696,4.490792,4.486972,4.483917,4.482424,4.479414,4.472669,4.467242,4.444779,4.384850,4.356186,4.351235,4.349408,4.356904,4.385620,4.426334,4.445347,4.451575,4.456159,4.458312,4.459803,4.461965,4.463257,4.464742,4.465950,4.465091,4.465062,4.466818,4.467319,4.467257,4.466663,4.465744,4.464145,4.462717,4.461840,4.461961,4.463288,4.463623,4.463941,4.463914,4.463868,4.463734,4.462909,4.461892,4.462367,4.463490,4.462648,4.461830,4.460426,4.461211,4.463089,4.462197,4.460049,4.459452,4.458679,4.457679,4.456317,4.455160,4.454145,4.453699,4.453701,4.452124,4.449857,4.449378,4.447893,4.446977,4.445326,4.444072,4.444367,4.443319,4.442177,4.441002,4.438663,4.436971,4.433002,4.430154,4.426625,4.419889,4.395091,4.379921,4.375668,4.375546,4.395516,4.414291,4.430025,4.450767,4.456977,4.460342,4.460935,4.462734,4.465005,4.467674,4.468080,4.467902,4.470140,4.472899,4.475289,4.477187,4.478689,4.481320,4.483839,4.484993,4.485849,4.486763,4.488501,4.488720,4.488931,4.488242,4.488801,4.489437,4.489182,4.489796,4.489869,4.488799,4.489907,4.487023,4.485664,4.485682,4.487465,4.489480,4.488781,4.488991,4.489317,4.490770,4.490282,4.489921,4.489810,4.489364,4.490681,4.490755,4.489575,4.487437,4.487229,4.484643,4.481361,4.476774,4.472875,4.469181,4.463519,4.456459,4.446931,4.435599,4.424025,4.408083,4.374953,4.353900,4.373964,4.370863,4.372656,4.374199,4.404609,4.443259,4.458600,4.463583,4.464978,4.465930,4.466681,4.466795,4.467811,4.468333,4.468328,4.468709,4.468940,4.469495,4.470689,4.470120,4.470978,4.472303,4.470819,4.471463,4.466462,4.467663,4.465953,4.466289,4.466966,4.467555,4.466248,4.465819,4.465976,4.464794,4.463071,4.462660,4.465676,4.468561,4.471924,4.475183,4.475344,4.471609,4.421049,4.261797,4.029365,3.914657,3.889622,3.878911,3.873595,3.868171,3.866693,3.863551,3.862570,3.857514,3.845020,3.847642,3.845096,3.838757,3.833196
3.778541,3.779920,3.784711,3.790158,3.798918,3.803987,3.810074,3.828818,3.840454,3.815082,3.817058,3.832147,3.907055,3.962970,3.985893,4.362836,4.446548,4.401065,4.179426,3.768758,3.539009,3.535651,3.553272,3.579011,3.595218,3.640536,3.621161,3.668599,3.683374,3.646945,4.217784,4.565324,4.504461,4.507060,4.522480,4.527627,4.531658,4.532604,4.535953,4.538971,4.540996,4.539713,4.538668,4.537899,4.536476,4.533892,4.532453,4.533690,4.533049,4.532953,4.533848,4.535005,4.536139,4.535861,4.535112,4.535619,4.536779,4.536924,4.538000,4.538248,4.539838,4.541483,4.541019,4.540264,4.539005,4.536427,4.539680,4.531135,4.425745,4.342300,4.342138,4.367074,4.394913,4.407686,4.409128,4.402564,4.343465,4.239864,4.222271,4.228251,4.241408,4.252067,4.267240,4.339117,4.496976,4.512932,4.513548,4.516253,4.514741,4.514256,4.514162,4.513522,4.514024,4.516125,4.516160,4.516501,4.512530,4.510940,4.510522,4.509239,4.506691,4.503610,4.503652,4.501544,4.500920,4.502021,4.500704,4.501988,4.502236,4.501923,4.502726,4.503462,4.502232,4.501731,4.500190,4.500237,4.499986,4.498909,4.500105,4.498065,4.495548,4.492696,4.490593,4.488431,4.486176,4.484071,4.480959,4.477823,4.475303,4.471909,4.468298,4.464823,4.459380,4.454247,4.434206,4.379546,4.357712,4.353382,4.354147,4.361531,4.388925,4.419217,4.433930,4.438804,4.442645,4.444881,4.447450,4.449632,4.451199,4.451912,4.453181,4.452809,4.453282,4.454630,4.455382,4.454412,4.453454,4.454490,4.452717,4.451129,4.449859,4.450004,4.451210,4.449881,4.449569,4.449493,4.450624,4.450708,4.450006,4.449944,4.451151,4.451889,4.451049,4.451294,4.449680,4.449982,4.449691,4.450376,4.448579,4.447626,4.447632,4.446315,4.444075,4.443424,4.442794,4.442102,4.441444,4.440280,4.438938,4.439108,4.436668,4.435071,4.434195,4.433560,4.434488,4.431787,4.429767,4.428575,4.426306,4.422906,4.418938,4.415627,4.411195,4.405849,4.393275,4.383789,4.382160,4.383957,4.398719,4.409702,4.419582,4.431692,4.440349,4.444448,4.445996,4.448242,4.450756,4.452942,4.452983,4.454529,4.456388,4.458497,4.460973,4.463020,4.465749,4.468799,4.471268,4.471955,4.473094,4.474463,4.476684,4.477086,4.476796,4.475948,4.476485,4.476895,4.476893,4.477892,4.476607,4.475604,4.477203,4.475648,4.474023,4.474505,4.475991,4.475871,4.475230,4.475676,4.476381,4.478481,4.478021,4.476584,4.476109,4.476262,4.477266,4.477005,4.476682,4.474738,4.475549,4.472136,4.469067,4.464842,4.461776,4.457888,4.452615,4.446409,4.437116,4.427526,4.417416,4.403754,4.375658,4.354365,4.373362,4.371776,4.374114,4.376337,4.407302,4.440372,4.447046,4.449690,4.455451,4.456395,4.456153,4.455933,4.456697,4.456995,4.456550,4.457187,4.457950,4.458369,4.459136,4.458509,4.458231,4.459013,4.460281,4.458699,4.455649,4.454699,4.455326,4.455009,4.455038,4.454698,4.453005,4.453606,4.452210,4.450395,4.447974,4.447161,4.450118,4.452498,4.455672,4.457866,4.456762,4.449202,4.375467,4.260612,4.139606,3.946460,3.889617,3.875963,3.870587,3.868291,3.870971,3.870216,3.869239,3.863989,3.852463,3.866044,3.862170,3.855221,3.849102
3.782965,3.782769,3.788804,3.796587,3.804743,3.812991,3.820950,3.858956,3.849791,3.827899,3.823495,3.843931,4.186984,4.328298,4.155519,4.192910,4.442560,4.452426,4.470235,4.039640,3.541968,3.536699,3.561187,3.585835,3.595975,3.610046,3.606032,3.620047,3.763256,4.493074,4.494917,4.511761,4.505342,4.509490,4.517152,4.519928,4.522346,4.523587,4.525884,4.528254,4.530637,4.530139,4.531105,4.529667,4.527200,4.524721,4.523311,4.523805,4.522841,4.522923,4.523449,4.524330,4.525507,4.525067,4.524662,4.524572,4.524635,4.525416,4.526825,4.526150,4.527728,4.528439,4.528485,4.527651,4.527817,4.526453,4.525361,4.529626,4.497758,4.375029,4.340930,4.358215,4.389047,4.403087,4.409369,4.408628,4.364180,4.267677,4.236125,4.236039,4.242257,4.254534,4.267431,4.296082,4.445173,4.496155,4.497432,4.499313,4.499690,4.500061,4.501881,4.502356,4.501667,4.502349,4.501845,4.502307,4.497893,4.496098,4.495326,4.496400,4.494309,4.491053,4.489536,4.486730,4.486559,4.488326,4.488640,4.487981,4.489316,4.489112,4.489225,4.490214,4.488883,4.488945,4.487094,4.487618,4.486443,4.486168,4.487136,4.484801,4.483350,4.480540,4.479132,4.476526,4.474979,4.472782,4.469184,4.467376,4.463156,4.459676,4.455719,4.451514,4.447867,4.443861,4.428150,4.381020,4.363274,4.358811,4.359356,4.367788,4.391255,4.412477,4.424246,4.428064,4.431316,4.434643,4.436298,4.437467,4.439305,4.439893,4.441788,4.441065,4.441400,4.441457,4.442596,4.443417,4.442529,4.442838,4.441156,4.439630,4.438702,4.438722,4.439055,4.437972,4.438199,4.437459,4.439714,4.439597,4.439651,4.438873,4.440211,4.440720,4.440349,4.441298,4.439635,4.438951,4.438291,4.437479,4.436755,4.436616,4.436632,4.435108,4.434117,4.432842,4.432312,4.433217,4.432045,4.430406,4.429853,4.429048,4.427117,4.426062,4.424845,4.424937,4.424410,4.421970,4.420306,4.417864,4.414169,4.410077,4.406393,4.402961,4.400159,4.395947,4.389362,4.383950,4.385217,4.388215,4.397789,4.407759,4.415207,4.422122,4.427991,4.430413,4.432739,4.435080,4.437274,4.439595,4.441298,4.443216,4.444726,4.445993,4.447576,4.451174,4.453992,4.457562,4.459512,4.461486,4.462707,4.463333,4.465482,4.465902,4.466451,4.466149,4.466968,4.467134,4.465656,4.468144,4.466086,4.466085,4.465592,4.463655,4.463147,4.463504,4.465011,4.463217,4.462356,4.462164,4.461755,4.464837,4.465114,4.464111,4.464458,4.464575,4.464746,4.466110,4.466050,4.464284,4.463580,4.461643,4.459089,4.455842,4.453141,4.448445,4.444055,4.438308,4.428812,4.419799,4.408783,4.397572,4.382332,4.362484,4.376755,4.373115,4.376632,4.383337,4.409220,4.438075,4.440326,4.423390,4.445973,4.448531,4.446362,4.446196,4.446606,4.446784,4.446751,4.448267,4.448060,4.448259,4.449708,4.449463,4.448795,4.449233,4.448579,4.446064,4.444944,4.444905,4.442423,4.442145,4.441786,4.442803,4.440955,4.440707,4.439265,4.437474,4.435001,4.436611,4.437957,4.438196,4.441299,4.444065,4.443793,4.427623,4.355732,4.271508,4.195785,4.012899,3.903034,3.882726,3.876341,3.875266,3.878266,3.879639,3.881043,3.877021,3.867327,3.888726,3.885931,3.877258,3.871125
3.790994,3.786551,3.794263,3.803286,3.811412,3.816409,3.830757,3.847231,3.842919,3.837710,3.834085,3.883047,4.366910,4.436129,4.377100,4.374936,4.434312,4.450519,4.457130,4.039311,3.539313,3.540634,3.562472,3.589099,3.597952,3.604936,3.609791,3.612062,3.697496,4.330109,4.491878,4.499133,4.500421,4.509162,4.512639,4.513169,4.513611,4.514824,4.515907,4.518724,4.519725,4.517571,4.518656,4.519289,4.516456,4.514417,4.513247,4.513625,4.512556,4.511832,4.512119,4.512542,4.514170,4.512642,4.511602,4.511374,4.511529,4.512110,4.512545,4.513154,4.514384,4.515247,4.514563,4.513468,4.513477,4.513261,4.512414,4.511429,4.507092,4.436422,4.351045,4.354552,4.383631,4.405848,4.414502,4.419889,4.384317,4.293807,4.250685,4.245281,4.246912,4.254765,4.269130,4.293878,4.393925,4.478051,4.484305,4.482560,4.483726,4.484189,4.484785,4.485352,4.485571,4.486681,4.486080,4.486146,4.483444,4.481039,4.481323,4.479410,4.477838,4.475744,4.475660,4.474025,4.471745,4.472738,4.472910,4.475048,4.475332,4.474732,4.474533,4.474577,4.474166,4.473558,4.472038,4.472699,4.472479,4.472288,4.472805,4.471364,4.469232,4.467930,4.466120,4.463443,4.462532,4.460803,4.456781,4.454051,4.450467,4.447464,4.444816,4.440020,4.435771,4.428098,4.413939,4.385990,4.370985,4.366267,4.366531,4.373459,4.391757,4.405827,4.413784,4.417895,4.422081,4.424545,4.426219,4.427112,4.428062,4.429152,4.431195,4.429907,4.429579,4.429901,4.429879,4.430351,4.429957,4.429481,4.429177,4.427990,4.427961,4.428860,4.428457,4.426903,4.427896,4.426325,4.428583,4.427843,4.426460,4.426807,4.426960,4.428083,4.427491,4.428453,4.427909,4.427119,4.427546,4.426216,4.425961,4.425797,4.424534,4.423907,4.422341,4.421781,4.421504,4.421875,4.421234,4.420538,4.419407,4.418092,4.416170,4.415087,4.414779,4.415308,4.415784,4.414254,4.411544,4.409065,4.405817,4.401196,4.395672,4.392225,4.391991,4.389738,4.385446,4.383014,4.384630,4.385350,4.392936,4.402408,4.410212,4.414174,4.418003,4.420165,4.422108,4.423475,4.425411,4.427782,4.428711,4.431106,4.433919,4.435844,4.438573,4.440878,4.442699,4.446320,4.448530,4.450498,4.451680,4.452892,4.454772,4.455244,4.453871,4.453609,4.454196,4.454540,4.453431,4.453880,4.454532,4.454209,4.453787,4.452740,4.452737,4.452301,4.453904,4.453038,4.450897,4.450062,4.449121,4.453608,4.452286,4.452388,4.453617,4.452581,4.453684,4.453506,4.454390,4.453476,4.453479,4.451777,4.448951,4.445786,4.442930,4.439533,4.433369,4.427491,4.420114,4.412364,4.403595,4.393993,4.384936,4.368112,4.378306,4.375071,4.378571,4.388183,4.409604,4.429058,4.426223,4.418482,4.428835,4.435735,4.436420,4.435152,4.435517,4.435164,4.436431,4.436340,4.436182,4.436692,4.437357,4.437263,4.436375,4.436826,4.436283,4.435558,4.434337,4.433835,4.433801,4.433291,4.431625,4.430572,4.429845,4.427979,4.426515,4.424016,4.422129,4.422894,4.422636,4.420979,4.422709,4.422249,4.418665,4.399618,4.348490,4.276148,4.180659,4.028550,3.920048,3.895559,3.885351,3.879375,3.879922,3.882967,3.887038,3.887847,3.883823,3.916392,3.915000,3.902958,3.893513
3.797738,3.792846,3.801670,3.813431,3.818864,3.820450,3.832899,3.839758,3.841596,3.843917,3.852057,4.111342,4.428361,4.457924,4.437580,4.429400,4.438601,4.450354,4.440476,3.842487,3.553131,3.545206,3.559218,3.589189,3.598951,3.600076,3.603191,3.598919,3.612452,4.036061,4.416332,4.476979,4.495423,4.502588,4.507158,4.505651,4.503832,4.506298,4.507696,4.509484,4.509759,4.508646,4.509110,4.508647,4.507582,4.505030,4.504842,4.504773,4.501945,4.501260,4.501815,4.503296,4.503575,4.502304,4.501457,4.499897,4.499876,4.499897,4.500259,4.500673,4.502448,4.502227,4.501228,4.500980,4.500618,4.500893,4.499011,4.496631,4.499428,4.480304,4.380790,4.352637,4.376935,4.407038,4.418031,4.424028,4.396785,4.320900,4.263422,4.252943,4.250864,4.256275,4.268143,4.286214,4.345287,4.452467,4.467956,4.467335,4.469748,4.470950,4.471647,4.470101,4.471743,4.471768,4.470659,4.471104,4.469089,4.468491,4.465860,4.465471,4.462520,4.462100,4.462785,4.460305,4.458939,4.458331,4.460615,4.460648,4.462591,4.461493,4.461394,4.461307,4.460549,4.461244,4.459476,4.460596,4.460046,4.460125,4.460853,4.458930,4.458592,4.455947,4.454191,4.451888,4.451486,4.449935,4.445183,4.442919,4.439914,4.437456,4.434308,4.430706,4.425503,4.417076,4.405439,4.387991,4.377437,4.372546,4.374721,4.379044,4.391315,4.399134,4.406084,4.409980,4.412483,4.414576,4.415601,4.417606,4.417604,4.417470,4.418442,4.418026,4.418080,4.418262,4.418928,4.418381,4.418790,4.418775,4.417076,4.415506,4.415728,4.417254,4.416418,4.416555,4.416218,4.416482,4.417054,4.415795,4.414951,4.414761,4.415897,4.415698,4.416072,4.416507,4.415930,4.415963,4.414821,4.414371,4.414132,4.414008,4.413058,4.411849,4.411028,4.410713,4.412043,4.411361,4.411107,4.409824,4.410295,4.408431,4.406278,4.405657,4.405343,4.407835,4.408244,4.406091,4.404034,4.402158,4.398981,4.394876,4.390192,4.388252,4.387616,4.386307,4.383340,4.383010,4.383528,4.385199,4.388112,4.395931,4.400840,4.405111,4.408630,4.409472,4.410567,4.412642,4.414301,4.415112,4.417676,4.419604,4.422497,4.426756,4.428872,4.431149,4.432411,4.435895,4.436745,4.438767,4.441103,4.442362,4.444798,4.444541,4.444549,4.442821,4.443336,4.443453,4.442294,4.443241,4.442896,4.442776,4.442134,4.442450,4.440266,4.440463,4.442409,4.442815,4.441171,4.438322,4.438955,4.442873,4.442451,4.444379,4.443778,4.444426,4.445550,4.445765,4.445535,4.444203,4.444313,4.441530,4.439435,4.437151,4.433731,4.430661,4.426674,4.420934,4.414639,4.407454,4.398353,4.391947,4.385257,4.379912,4.379883,4.381240,4.383534,4.391939,4.406624,4.416607,4.418559,4.414352,4.418108,4.422799,4.424845,4.424132,4.423282,4.422052,4.423079,4.425304,4.425035,4.425596,4.426178,4.424807,4.424518,4.425230,4.425278,4.423490,4.423321,4.422338,4.420987,4.419888,4.418022,4.417978,4.417615,4.415289,4.412733,4.411208,4.410653,4.411139,4.410676,4.408612,4.408884,4.406401,4.398887,4.382512,4.344124,4.284734,4.188438,4.030950,3.929268,3.904345,3.891444,3.886054,3.886317,3.889131,3.895353,3.901546,3.908072,3.951860,3.953545,3.943344,3.931598
3.801114,3.797712,3.805986,3.823912,3.829259,3.827619,3.831653,3.833938,3.843089,3.979932,4.506279,4.497313,4.466331,4.456789,4.454751,4.456086,4.449659,4.443004,4.383034,3.699358,3.556561,3.551297,3.561487,3.590722,3.601946,3.608619,3.607688,3.589360,3.596181,3.677204,4.048491,4.440251,4.483633,4.489347,4.494146,4.494770,4.495173,4.496357,4.498232,4.498898,4.499233,4.498161,4.496257,4.497018,4.497252,4.495865,4.495162,4.494696,4.491814,4.491991,4.493044,4.491898,4.493124,4.491502,4.491138,4.489747,4.488765,4.488081,4.489477,4.491281,4.490700,4.490963,4.489458,4.489360,4.489193,4.488824,4.487528,4.486995,4.487906,4.487734,4.418337,4.351201,4.371783,4.402884,4.414114,4.420826,4.410467,4.357663,4.278755,4.264035,4.258539,4.256430,4.270013,4.285355,4.317152,4.416480,4.449527,4.455175,4.457107,4.456905,4.456812,4.457777,4.457371,4.457352,4.455963,4.456389,4.455645,4.455283,4.453248,4.453067,4.451972,4.450622,4.452227,4.448814,4.448266,4.449291,4.450017,4.449551,4.449261,4.449712,4.450180,4.447770,4.446989,4.449137,4.448472,4.448062,4.448002,4.447642,4.449322,4.448308,4.446910,4.444922,4.442561,4.441472,4.440333,4.439193,4.435519,4.432431,4.430046,4.428034,4.425910,4.422640,4.418179,4.409811,4.401158,4.388730,4.381521,4.379400,4.379326,4.382545,4.388669,4.393183,4.399458,4.401851,4.403515,4.404485,4.406291,4.408007,4.407914,4.407582,4.408882,4.408047,4.407824,4.407313,4.408288,4.409213,4.409212,4.408850,4.407874,4.407555,4.406864,4.405998,4.407301,4.406332,4.406768,4.406276,4.406717,4.406153,4.406435,4.406286,4.404959,4.405287,4.405425,4.405916,4.405817,4.405050,4.403807,4.403308,4.403390,4.402171,4.401947,4.402291,4.400970,4.401506,4.402129,4.401406,4.401330,4.402371,4.401455,4.399506,4.398328,4.398443,4.398577,4.399126,4.398760,4.397451,4.397801,4.396942,4.393928,4.391124,4.386966,4.384329,4.382291,4.380534,4.379689,4.379597,4.381869,4.383977,4.384604,4.389081,4.394552,4.396654,4.399755,4.399788,4.401651,4.403538,4.404308,4.406120,4.407389,4.409955,4.413641,4.415946,4.417113,4.420820,4.422581,4.424498,4.426339,4.427691,4.431057,4.432885,4.433991,4.433719,4.432668,4.432612,4.432186,4.432110,4.432057,4.431987,4.430654,4.429188,4.429509,4.430139,4.430146,4.429793,4.429213,4.430099,4.430230,4.430195,4.427375,4.425291,4.432845,4.435621,4.435408,4.434772,4.434561,4.435249,4.436796,4.435472,4.435083,4.432866,4.431692,4.429700,4.426683,4.422356,4.419242,4.414759,4.408628,4.403045,4.395509,4.390852,4.387799,4.383672,4.381072,4.381942,4.385115,4.392266,4.401351,4.407390,4.408084,4.406662,4.406904,4.410859,4.414310,4.398320,4.388162,4.404651,4.409573,4.411953,4.412470,4.412045,4.412233,4.412403,4.413138,4.414800,4.414345,4.414905,4.414820,4.412492,4.410332,4.406883,4.406582,4.406094,4.405911,4.404740,4.403758,4.403344,4.402536,4.401825,4.400306,4.398083,4.397742,4.391480,4.383587,4.368066,4.332928,4.278288,4.182749,4.008267,3.934162,3.924630,3.903293,3.896571,3.898802,3.904710,3.914880,3.937907,3.962003,3.998118,4.003936,4.000403,4.002627
3.805593,3.803649,3.808867,3.823418,3.838429,3.836912,3.834070,3.833379,3.844512,3.995690,4.406942,4.465254,4.466959,4.463019,4.462633,4.464383,4.461540,4.405310,3.724669,3.572553,3.551971,3.563895,3.572576,3.591985,3.599003,3.607307,3.615406,3.620178,3.812945,3.633113,4.053638,4.450997,4.476555,4.481012,4.485734,4.486178,4.485020,4.487864,4.488854,4.489088,4.488655,4.488048,4.486848,4.486358,4.487229,4.486596,4.486443,4.486026,4.483539,4.483805,4.483788,4.483177,4.483654,4.483259,4.481093,4.480729,4.478798,4.478927,4.479303,4.479357,4.478646,4.478866,4.477777,4.476494,4.475965,4.476087,4.476738,4.476374,4.476012,4.476540,4.450175,4.365225,4.363814,4.392576,4.410100,4.419742,4.418190,4.390904,4.304554,4.275043,4.269318,4.262561,4.276078,4.288132,4.306090,4.375871,4.430268,4.441710,4.442796,4.443839,4.445232,4.445206,4.445178,4.446849,4.447180,4.446728,4.445369,4.444110,4.442706,4.443601,4.442472,4.442190,4.443479,4.440754,4.440818,4.441083,4.439469,4.438897,4.439502,4.438400,4.438319,4.437339,4.437222,4.437696,4.437861,4.437603,4.437604,4.437816,4.439219,4.437433,4.436022,4.433828,4.432651,4.430284,4.428589,4.428169,4.425642,4.422511,4.418735,4.417982,4.416639,4.413907,4.409494,4.401761,4.394738,4.387851,4.382237,4.381151,4.381646,4.384130,4.387566,4.389147,4.393006,4.394216,4.395945,4.396682,4.396939,4.398599,4.399344,4.398637,4.398970,4.398265,4.397672,4.397769,4.398770,4.398609,4.398798,4.399384,4.399261,4.397960,4.397004,4.397857,4.398251,4.397193,4.397621,4.397245,4.398225,4.397333,4.395428,4.395561,4.394553,4.394223,4.395037,4.395667,4.394620,4.394270,4.393627,4.391960,4.390113,4.390099,4.389778,4.391730,4.391462,4.391422,4.391750,4.391872,4.390550,4.389803,4.389174,4.388511,4.389431,4.389042,4.390347,4.391803,4.392467,4.389568,4.388320,4.386663,4.384119,4.382732,4.381219,4.377848,4.376757,4.376218,4.376981,4.376990,4.378830,4.379580,4.380139,4.383417,4.386551,4.387780,4.390884,4.390440,4.391806,4.393878,4.395177,4.396539,4.398054,4.400199,4.402874,4.405430,4.408232,4.411438,4.413199,4.413712,4.416421,4.419602,4.420478,4.421664,4.422311,4.422422,4.421154,4.420133,4.420781,4.420322,4.420428,4.419217,4.418758,4.418814,4.416075,4.418032,4.418855,4.419102,4.419569,4.420395,4.421616,4.420629,4.417507,4.416782,4.418818,4.424495,4.426797,4.424502,4.426591,4.427505,4.428279,4.427116,4.426810,4.424275,4.421530,4.419961,4.417311,4.415061,4.412619,4.409088,4.403991,4.399549,4.395172,4.392242,4.389505,4.386451,4.384106,4.383508,4.387212,4.391525,4.396761,4.399125,4.399466,4.397922,4.398087,4.399080,4.385301,4.387740,4.391586,4.396930,4.399996,4.402165,4.401053,4.400339,4.400401,4.400734,4.401119,4.401517,4.401940,4.403276,4.404253,4.401617,4.398083,4.397404,4.396169,4.395169,4.394899,4.393409,4.394408,4.394432,4.392736,4.391671,4.389826,4.387692,4.386734,4.378572,4.366286,4.352194,4.319615,4.257242,4.132205,3.983471,3.934558,3.927873,3.922679,3.917552,3.920438,3.931996,3.947236,3.980762,4.007716,4.040455,4.053186,4.059895,4.071817
3.810160,3.808813,3.811599,3.814825,3.845875,3.842977,3.839293,3.844249,3.910981,4.171594,4.430417,4.459882,4.458822,4.461193,4.461705,4.464604,4.466347,4.421672,3.666165,3.536394,3.545224,3.598624,3.586076,3.592233,3.599346,3.611768,3.633525,3.877130,4.428057,4.461932,4.454893,4.472459,4.469288,4.472600,4.475457,4.476054,4.474876,4.476548,4.478705,4.479628,4.479406,4.478574,4.477789,4.478285,4.478640,4.477585,4.476063,4.474807,4.473318,4.473106,4.472999,4.473417,4.472474,4.471687,4.469836,4.470279,4.469239,4.469421,4.469763,4.466827,4.466791,4.467164,4.466114,4.465133,4.463722,4.464115,4.464133,4.464598,4.463326,4.462261,4.451628,4.393376,4.362644,4.376417,4.400863,4.416196,4.418791,4.399612,4.330973,4.286283,4.280689,4.273245,4.280432,4.291648,4.309443,4.347906,4.411965,4.426119,4.429789,4.432593,4.433642,4.432324,4.432466,4.435085,4.434402,4.435781,4.434511,4.433883,4.432812,4.432963,4.431699,4.431766,4.431623,4.430775,4.430722,4.429695,4.428829,4.428886,4.428692,4.427379,4.426939,4.426152,4.424634,4.426033,4.426103,4.426815,4.427281,4.427107,4.428431,4.426066,4.424938,4.423480,4.422086,4.418485,4.416781,4.416690,4.413910,4.410542,4.408488,4.408489,4.407331,4.404897,4.400574,4.394361,4.389479,4.386046,4.381908,4.380311,4.380788,4.382380,4.384201,4.384005,4.385554,4.386173,4.386838,4.387237,4.388035,4.388628,4.389763,4.389458,4.389070,4.388039,4.387197,4.388636,4.389150,4.389091,4.388658,4.389116,4.389838,4.388038,4.386247,4.387430,4.388231,4.387339,4.387523,4.386939,4.386433,4.386036,4.385033,4.386028,4.383373,4.383648,4.384225,4.384519,4.381426,4.382834,4.382310,4.380253,4.377889,4.379971,4.380541,4.380831,4.380923,4.381402,4.382232,4.381474,4.380325,4.379447,4.380185,4.380071,4.379968,4.378836,4.381475,4.381771,4.380470,4.379157,4.377784,4.376909,4.374435,4.373896,4.373449,4.369836,4.369606,4.370634,4.371280,4.371699,4.371604,4.372398,4.372722,4.378003,4.378898,4.378154,4.378941,4.380269,4.381293,4.383353,4.383963,4.385800,4.387410,4.389005,4.391498,4.393201,4.395268,4.398709,4.400204,4.400632,4.404595,4.407423,4.408137,4.407886,4.409636,4.409604,4.409973,4.407591,4.408864,4.408538,4.407983,4.407401,4.405492,4.404976,4.404554,4.405979,4.405673,4.408229,4.408934,4.410743,4.411520,4.410942,4.409830,4.409191,4.407929,4.409272,4.414098,4.413096,4.415705,4.416133,4.417638,4.416811,4.417211,4.414279,4.411661,4.407671,4.405813,4.406083,4.405128,4.401962,4.399180,4.395234,4.392025,4.390774,4.390334,4.387479,4.385743,4.383162,4.385499,4.385887,4.388866,4.389952,4.390051,4.388755,4.387182,4.387309,4.385975,4.387004,4.384995,4.387413,4.386849,4.388412,4.388685,4.388457,4.388685,4.389762,4.389925,4.389682,4.390950,4.392713,4.392873,4.389844,4.387807,4.386532,4.385633,4.384570,4.383543,4.382245,4.382642,4.381812,4.380106,4.379783,4.376067,4.375310,4.376008,4.368210,4.356335,4.337695,4.309569,4.245511,4.136248,3.979759,3.941438,3.941604,3.945368,3.950031,3.956667,3.971835,3.989351,4.024253,4.048462,4.077990,4.097659,4.110768,4.119768
3.813674,3.816386,3.816405,3.819241,3.843549,3.846938,3.851429,3.888165,4.439347,4.465533,4.448233,4.451048,4.451731,4.455692,4.455431,4.457442,4.455263,4.421830,3.925394,3.549208,3.555208,3.661904,3.599041,3.592017,3.604401,3.617029,3.627873,3.679411,4.371387,4.434397,4.457118,4.456439,4.458916,4.461766,4.462345,4.462225,4.463619,4.465844,4.467912,4.467158,4.466029,4.466533,4.465954,4.465929,4.466082,4.465104,4.462926,4.461725,4.460445,4.460417,4.460783,4.460894,4.461620,4.460584,4.460119,4.458243,4.457514,4.456503,4.454610,4.454200,4.454493,4.453861,4.451786,4.450216,4.449698,4.450284,4.450514,4.450634,4.450308,4.446090,4.438886,4.413855,4.367740,4.360477,4.380614,4.408249,4.417825,4.406428,4.351070,4.293890,4.289463,4.283710,4.289329,4.298818,4.312378,4.336378,4.390822,4.410586,4.415098,4.415754,4.417333,4.418152,4.419364,4.420041,4.420363,4.421109,4.420652,4.420976,4.420794,4.419664,4.418604,4.417006,4.418626,4.418061,4.416648,4.416415,4.416172,4.415881,4.414799,4.414724,4.414949,4.414590,4.413910,4.413063,4.414627,4.413569,4.413430,4.413022,4.414160,4.413625,4.411935,4.410509,4.407650,4.405013,4.403918,4.403404,4.400789,4.396315,4.396125,4.395841,4.394124,4.392014,4.388310,4.385067,4.380450,4.377141,4.375115,4.374776,4.374183,4.376713,4.377386,4.375617,4.378998,4.378311,4.377897,4.377946,4.376929,4.376813,4.378551,4.378426,4.377860,4.377702,4.377024,4.377706,4.377139,4.376565,4.377435,4.377835,4.377903,4.376383,4.374857,4.375615,4.376101,4.375137,4.374944,4.375214,4.374879,4.373414,4.371514,4.372034,4.371634,4.372528,4.371298,4.370777,4.369848,4.371844,4.370677,4.368268,4.366034,4.369311,4.370267,4.369183,4.369180,4.370038,4.371195,4.370054,4.368434,4.366850,4.368849,4.366754,4.365442,4.365065,4.368518,4.367799,4.367198,4.365812,4.364374,4.365549,4.363148,4.359322,4.360137,4.360664,4.360321,4.361243,4.361305,4.360962,4.362825,4.363081,4.366612,4.368961,4.367326,4.366544,4.366321,4.367359,4.368907,4.371946,4.372367,4.374052,4.376479,4.377163,4.379915,4.382284,4.383306,4.385338,4.386974,4.387422,4.390703,4.393351,4.394928,4.395558,4.396159,4.395434,4.395490,4.394139,4.394262,4.394846,4.394076,4.392780,4.391847,4.390247,4.392252,4.391925,4.393719,4.394733,4.396251,4.397144,4.396458,4.396595,4.397142,4.398981,4.397126,4.395558,4.400166,4.401739,4.404252,4.404429,4.405868,4.404692,4.406325,4.403800,4.401309,4.397643,4.394515,4.394561,4.394605,4.393832,4.390901,4.389755,4.388082,4.387465,4.389075,4.383470,4.381328,4.378479,4.379458,4.380288,4.381567,4.381203,4.380529,4.378923,4.376727,4.377533,4.376895,4.374308,4.374716,4.373403,4.373523,4.375454,4.377935,4.375968,4.376230,4.377423,4.376909,4.377934,4.377390,4.378763,4.378437,4.377875,4.376516,4.373754,4.372530,4.372963,4.373171,4.372070,4.371993,4.370975,4.368617,4.367724,4.363274,4.364746,4.362489,4.355552,4.345670,4.329995,4.300336,4.242868,4.151407,4.014473,3.975423,3.976914,3.979732,3.989295,4.003726,4.021480,4.040334,4.061593,4.084467,4.113791,4.135870,4.146947,4.149977
